ply
format ascii 1.0
comment VCGLIB generated
element vertex 219
property float x
property float y
property float z
element face 0
property list uchar int vertext index
end_header
-33.7942 -5.10146 70.1213 
-35.1079 -3.91882 69.9204 
-35.7953 -2.14555 69.4483 
-35.0003 -3.82727 67.8196 
-31.5973 -4.09682 68.966 
-31.3131 -3.95315 68.9439 
-30.9762 -3.74781 68.9901 
-30.6038 -3.52653 68.9795 
-30.2345 -3.37138 69.0269 
-29.9928 -3.33755 69.0033 
-29.6466 -3.35236 68.9526 
-29.3566 -3.43659 68.8519 
-29.2244 -3.58759 68.7286 
-29.0072 -3.71566 68.685 
-28.5631 -3.47491 68.8399 
-28.1746 -3.45179 69.3286 
-28.0581 -3.82992 69.6127 
-28.0022 -4.17569 69.679 
-27.787 -4.20301 69.7135 
-27.5871 -4.25959 69.8253 
-27.4485 -4.53633 69.8741 
-28.9341 -3.18401 64.0241 
-31.1327 -2.64312 63.9701 
-31.1471 -4.22569 66.7187 
-31.0794 -3.8311 67.3504 
-31.0237 -3.53007 67.9163 
-30.8104 -3.41076 68.366 
-30.6764 -3.08239 68.9965 
-30.8592 -3.42763 69.2792 
-30.9831 -3.47111 69.7415 
-31.2226 -3.52951 70.2161 
-31.0416 -3.58244 70.626 
-30.7793 -3.56226 71.0903 
-30.4089 -3.52236 71.5679 
-30.0162 -3.90385 71.6585 
-29.8219 -3.02715 63.9705 
-31.9691 -2.99858 64.3411 
-31.886 -3.57006 64.3383 
-35.3671 -1.97724 66.5265 
-35.1682 -2.73471 66.6717 
-34.571 -4.00041 66.5855 
-35.8793 -1.68243 68.1604 
-35.873 -2.36153 68.2307 
-35.6877 -3.08923 68.3124 
-35.0329 -4.17467 68.5668 
-35.5013 -1.34462 71.1841 
-35.3062 -2.02617 71.1414 
-35.1294 -2.66747 71.1417 
-34.9714 -3.30682 71.2632 
-34.1522 -4.38142 71.0471 
-33.5721 -1.11432 72.5682 
-33.3907 -1.85025 72.6161 
-33.1857 -2.58869 72.7011 
-33.0945 -3.28235 72.6839 
-32.6345 -4.28438 72.4302 
-31.3432 -0.846582 72.7258 
-31.279 -1.46299 72.8245 
-31.068 -2.15476 72.8561 
-30.9627 -3.00064 72.8718 
-28.5788 -0.63362 72.6081 
-28.7013 -1.18809 73.0057 
-28.9934 -1.79646 72.8127 
-29.3433 -3.12142 73.1614 
-26.6454 -1.06668 72.4487 
-27.0037 -1.73951 72.6183 
-27.2674 -2.29605 72.739 
-25.3252 -1.44093 69.4638 
-25.3717 -2.11585 69.7628 
-25.3751 -2.86439 69.9667 
-25.4244 -3.57475 70.4283 
-26.1009 -4.59421 70.8142 
-26.5811 -2.45123 66.4805 
-26.5838 -3.5497 66.8733 
-26.9152 -2.78971 65.5745 
-27.0754 -3.82235 65.6823 
-33.7942 -5.10146 70.1213 
-35.1079 -3.91882 69.9204 
-35.7953 -2.14555 69.4483 
-35.0003 -3.82727 67.8196 
-32.6331 -4.41605 66.6539 
-32.4661 -4.66809 65.9748 
-32.1127 -4.3207 65.816 
-31.8977 -4.24908 65.7406 
-31.5588 -4.08258 65.6592 
-31.3153 -3.99807 65.5745 
-31.1166 -3.96787 65.5519 
-30.765 -3.78059 65.5785 
-30.5708 -3.81019 65.5646 
-30.3811 -3.84813 65.6054 
-30.091 -3.76235 65.5482 
-29.9683 -3.99866 65.3589 
-29.8572 -4.25275 65.298 
-29.443 -3.87155 64.9303 
-29.2689 -4.03531 64.9075 
-29.1091 -4.09593 64.911 
-28.9678 -4.19396 64.9328 
-28.7988 -4.32121 64.9462 
-28.6031 -4.43635 64.9508 
-28.47 -4.54975 64.9634 
-28.2599 -4.59207 64.986 
-28.018 -4.57124 65.0453 
-27.7432 -4.52203 65.4443 
-27.7039 -4.92542 66.3312 
-27.4365 -4.97685 66.6215 
-33.7942 -5.10146 70.1213 
-35.1079 -3.91882 69.9204 
-35.7953 -2.14555 69.4483 
-35.0003 -3.82727 67.8196 
-33.2689 -5.05225 71.7898 
-32.836 -4.70611 72.2566 
-32.3699 -4.52212 72.5061 
-32.0283 -4.4225 72.6357 
-31.4993 -3.95019 72.6315 
-31.0644 -3.87248 72.7134 
-30.6971 -3.73968 72.7361 
-30.2239 -3.3778 72.8459 
-29.7877 -3.23439 72.9456 
-29.4286 -3.34533 73.0635 
-29.0636 -3.24423 72.9485 
-28.7478 -3.36889 72.9907 
-28.3846 -3.35158 73.2055 
-28.0653 -3.43459 73.0826 
-27.8355 -3.7383 72.883 
-27.6933 -4.09137 72.7087 
-27.4043 -4.272 72.3518 
-27.3239 -4.77261 72.1522 
-27.2252 -5.23197 71.794 
-27.1332 -5.69781 71.2655 
-28.9341 -3.18401 64.0241 
-31.1283 -2.62453 64.0686 
-30.1255 -3.5206 64.317 
-29.6236 -4.30131 64.4153 
-29.1676 -4.75315 64.6243 
-28.9488 -4.93855 64.8613 
-28.734 -5.20742 65.0354 
-28.6027 -5.35942 65.3324 
-28.396 -5.48509 65.6023 
-28.2424 -5.47421 65.8657 
-28.0082 -5.25191 66.2892 
-27.8149 -4.82898 66.7515 
-27.4169 -4.91767 67.0186 
-27.0314 -4.25943 67.5724 
-27.0036 -4.2934 67.9374 
-26.9277 -4.47629 68.1391 
-26.8953 -4.60427 68.3967 
-26.8667 -4.71414 68.7147 
-26.8022 -4.89384 68.9688 
-26.8242 -4.85768 69.272 
-26.828 -4.91061 69.5767 
-26.8065 -5.02236 69.8394 
-26.8718 -4.95613 70.2856 
-27.0469 -4.97716 70.5345 
-27.0955 -5.15617 70.7154 
-27.2155 -5.07214 71.1007 
-27.5278 -5.08906 71.3919 
-28.9341 -3.18401 64.0241 
-31.1283 -2.62453 64.0686 
-32.6078 -4.30602 65.954 
-32.6868 -4.39708 66.1987 
-32.7045 -4.35665 66.4143 
-32.8093 -4.1581 66.7779 
-33.4053 -4.33794 67.0148 
-33.4023 -4.54582 67.1818 
-33.4376 -4.68662 67.3905 
-33.5076 -4.69705 67.7574 
-33.5621 -4.74432 68.0003 
-33.5305 -4.82356 68.212 
-33.3779 -4.98751 68.4089 
-33.3779 -5.06531 68.6766 
-33.3881 -5.05621 68.9596 
-33.3931 -5.02558 69.2332 
-33.361 -4.99892 69.5245 
-33.3522 -5.07817 69.7553 
-33.4416 -4.97127 70.0823 
-33.3546 -4.97521 70.4009 
-33.2688 -4.88725 70.683 
-33.1901 -4.87028 70.9744 
-32.9932 -4.63338 71.3212 
-32.7472 -4.49805 71.7028 
-32.4877 -4.39638 72.0523 
-32.0862 -3.78651 72.569 
-31.7341 -3.43245 72.9181 
-33.6467 -5.09311 70.1279 
-35.0396 -4.04163 69.9826 
-35.8191 -2.31445 69.5003 
-34.9844 -3.94651 67.8505 
-30.9331 -3.85144 65.3386 
-31.5462 -4.28359 66.06 
-31.1224 -4.30324 66.7265 
-31.826 -4.66512 67.675 
-32.6838 -5.10925 68.9182 
-31.9668 -4.63683 68.9083 
-31.241 -3.86503 68.7081 
-32.3259 -4.84749 70.1372 
-31.4614 -4.37692 69.9308 
-31.9717 -4.42865 70.8791 
-31.3733 -4.02839 71.4307 
-30.5736 -3.62044 71.9943 
-33.6467 -5.09311 70.1279 
-35.0396 -4.04163 69.9826 
-35.8191 -2.31445 69.5003 
-34.9844 -3.94651 67.8505 
-28.6531 -4.71194 65.2722 
-29.5221 -4.40575 66.5112 
-29.5503 -4.36932 67.2905 
-28.7739 -4.03878 67.1456 
-27.9139 -4.69312 66.0395 
-26.8702 -3.49864 67.0624 
-27.7034 -4.02218 68.3402 
-27.0688 -4.1261 68.3853 
-27.6879 -3.91376 69.2025 
-28.2687 -4.26712 69.9053 
-27.2255 -4.46168 69.9846 
-29.1194 -3.67087 69.0979 
-27.9501 -3.55885 71.7044 
-28.8709 -3.87234 71.3298 
-29.5062 -3.84379 70.6131 
-29.7793 -3.76779 69.832 
-28.7202 -3.01139 72.5798
