ply
format ascii 1.0
element vertex 60
property float x
property float y
property float z
element face 0
property list uchar int vertex_index
end_header
-29.897105 -0.059950 64.131937
-29.934781 -0.654117 64.053418
-29.803220 -1.429528 63.851127
-29.859529 -2.023197 63.892395
-29.821855 -3.027153 63.970519
-32.001773 -0.831127 64.079594
-31.993031 -1.516242 63.818802
-32.103638 -2.212361 64.039437
-31.969061 -2.998578 64.341130
-31.886015 -3.570061 64.338338
-35.396216 -0.552959 66.562863
-35.400143 -1.264286 66.502380
-35.367123 -1.977240 66.526487
-35.168190 -2.734715 66.671723
-34.570978 -4.000409 66.585542
-35.923858 -0.884534 68.157692
-35.879306 -1.682426 68.160430
-35.873014 -2.361532 68.230677
-35.687674 -3.089227 68.312376
-35.032886 -4.174671 68.566769
-35.501258 -1.344623 71.184062
-35.306154 -2.026167 71.141400
-35.129417 -2.667473 71.141723
-34.971382 -3.306817 71.263190
-34.152180 -4.381423 71.047069
-33.572115 -1.114322 72.568206
-33.390691 -1.850254 72.616085
-33.185664 -2.588691 72.701140
-33.094474 -3.282346 72.683927
-32.634531 -4.284380 72.430177
-31.335092 -0.189124 72.611992
-31.343198 -0.846582 72.725770
-31.279000 -1.462993 72.824541
-31.067997 -2.154760 72.856095
-30.962746 -3.000645 72.871835
-28.423943 -0.029702 72.280055
-28.578777 -0.633620 72.608110
-28.701265 -1.188086 73.005748
-28.993380 -1.796463 72.812665
-29.343306 -3.121416 73.161421
-26.702387 0.151793 71.355144
-26.829560 -0.443021 71.730072
-26.645379 -1.066676 72.448653
-27.003666 -1.739515 72.618263
-27.267363 -2.296050 72.739000
-25.325176 -1.440928 69.463840
-25.371713 -2.115855 69.762814
-25.375147 -2.864392 69.966732
-25.424378 -3.574755 70.428336
-26.100929 -4.594209 70.814222
-26.850564 -0.508403 65.995090
-26.810006 -1.130972 66.135417
-26.537887 -1.863442 66.229719
-26.581098 -2.451230 66.480481
-26.583781 -3.549695 66.873320
-27.378956 -0.709705 65.420340
-27.063568 -1.374162 65.364740
-26.950343 -2.043421 65.550448
-26.915211 -2.789713 65.574476
-27.075397 -3.822349 65.682254
