ply
format ascii 1.0
element vertex 793
property float x
property float y
property float z
element face 0
property list uchar int vertex_index
end_header
-29.065078 10.686504 73.274092
-28.758961 10.224311 72.300546
-28.481826 9.570501 71.306098
-28.196588 8.966612 70.591985
-27.984094 8.421938 69.963026
-27.893053 7.936917 69.447055
-27.620923 7.364557 68.769515
-27.480794 6.872643 68.045468
-27.589222 6.318327 67.756665
-27.652618 5.908677 67.362838
-27.547078 5.462740 66.925227
-27.658995 5.028384 66.570377
-27.677572 4.552821 66.086752
-27.747918 3.987849 65.819695
-27.769325 3.571039 65.526280
-27.858246 3.085197 65.224875
-27.946353 2.747578 64.926231
-28.047945 2.235277 64.663247
-28.172606 1.795395 64.294171
-28.096918 1.396564 63.959824
-28.026908 0.965590 63.560152
-28.079205 0.540960 63.281508
-28.074835 0.085304 63.114172
-28.070489 -0.298252 62.947718
-28.131515 -0.711803 62.541074
-28.256414 -1.123985 62.358257
-28.311643 -1.501164 62.251973
-28.380585 -2.015664 62.176505
-28.417177 -2.357202 62.106022
-28.541646 -2.737452 62.152453
-28.628346 -3.110406 62.042077
-28.586411 -3.551706 61.951197
-28.592031 -4.007964 62.112415
-28.592031 -4.420594 62.112415
-28.573843 -4.973587 62.147645
-29.634530 10.608784 73.438889
-29.527283 9.945114 72.578843
-28.915171 9.119422 70.894529
-28.879146 8.453402 70.142439
-28.678298 7.989421 70.134896
-28.635384 7.278940 69.132658
-28.446352 6.570314 68.317946
-28.485927 5.974284 67.557880
-28.458198 5.382039 67.167014
-28.495148 4.723500 66.783703
-28.344715 4.282932 66.338690
-28.569477 3.687430 65.681777
-29.093070 3.034036 65.163680
-29.265136 2.411023 64.993420
-29.462288 1.886088 64.517879
-29.734001 1.298215 63.854515
-29.803244 0.821301 63.017553
-29.839298 0.227273 62.947179
-29.787303 -0.266627 62.845185
-29.891073 -0.823550 62.683824
-29.962495 -1.246949 62.544817
-29.954078 -1.894561 62.279552
-29.914186 -2.343783 62.037174
-30.032530 -2.894290 62.047783
-30.032530 -3.284155 62.047783
-30.028723 -3.904172 62.095051
-30.028723 -4.424352 62.095051
-30.076545 -4.920455 62.242492
-30.128283 -5.544857 62.342801
-30.085396 -6.213243 62.507235
-34.069610 11.676547 74.438373
-33.598650 10.921990 73.578622
-33.232088 10.328635 72.944050
-32.578313 9.524930 72.092096
-32.272402 8.967685 71.581913
-32.244185 8.261969 71.021794
-32.076400 7.708688 70.407329
-31.673815 6.932626 69.684688
-31.454398 6.396234 69.042040
-31.328707 5.755315 68.766151
-31.229332 5.237723 68.154290
-31.224331 4.620503 67.522828
-31.423069 3.978430 66.886663
-31.803108 3.349459 66.284493
-32.078606 2.810486 65.918536
-32.159510 2.236800 65.377611
-32.381451 1.748406 65.131821
-32.386713 1.257972 64.595272
-32.535186 0.640821 64.084033
-32.735895 0.168030 63.883250
-32.854297 -0.434824 63.526996
-32.950946 -0.934421 63.391270
-33.001711 -1.395260 63.105502
-33.147691 -1.888599 62.941167
-33.263062 -2.481215 62.846159
-33.222620 -2.940775 62.769749
-33.323911 -3.480013 62.961125
-33.303603 -4.007840 62.922756
-33.218165 -4.506557 62.949149
-33.128364 -5.240618 63.411513
-35.024501 12.337123 73.434046
-34.273515 11.628272 72.372925
-33.627689 11.005063 72.300643
-33.401501 10.202062 71.814332
-33.303246 9.594431 70.915212
-32.999293 8.762017 70.015749
-32.684972 8.033599 69.183284
-32.624943 7.378136 68.891754
-32.431865 6.731114 68.240259
-32.445951 6.043682 67.867246
-32.533628 5.445825 67.572393
-32.604127 4.862009 67.403022
-32.810780 4.099133 66.740913
-32.895448 3.669372 66.455745
-32.940769 2.900724 66.020792
-33.077868 2.407723 65.775169
-33.264022 1.804211 65.411816
-33.495291 1.167175 64.859627
-33.644191 0.688735 64.583753
-33.789393 0.032976 64.236635
-33.983222 -0.507351 63.852110
-34.046414 -1.080922 63.700855
-34.153469 -1.682733 63.366278
-34.218661 -2.216031 63.288575
-34.163431 -2.782585 63.186425
-34.194523 -3.526739 63.112278
-34.299184 -3.922072 63.173939
-34.317644 -4.458863 63.207939
-34.339139 -5.073275 63.313293
-34.242933 -5.729735 63.465861
-30.221712 2.971396 66.428237
-30.388132 2.612487 66.002974
-30.662489 2.229367 65.371139
-30.865090 1.962595 64.897329
-30.942141 1.601525 64.583255
-31.014166 1.286303 64.339124
-31.072426 1.054538 64.011173
-31.119750 0.704163 63.851102
-31.240226 0.355449 63.702658
-31.306140 0.069804 63.530625
-31.427284 -0.234334 63.351499
-31.465587 -0.537978 63.324484
-31.564814 -0.799114 63.192459
-31.440643 -1.142558 63.124935
-31.446341 -1.423351 63.028287
-31.543377 -1.742351 62.929596
-31.624684 -2.078829 62.780690
-31.619261 -2.383343 62.876525
-31.676042 -2.682209 62.836815
-31.808095 -2.976495 62.744464
-31.874860 -3.220175 62.851033
-31.905781 -3.625692 62.952347
-31.955611 -3.870031 63.040596
-31.969493 -4.196102 63.123554
-32.071145 -4.523765 63.268588
-35.765683 12.623204 73.617406
-35.186969 12.045898 73.298285
-34.569038 11.340564 73.217085
-34.508819 10.510647 72.224689
-34.296576 9.834588 71.926082
-33.953295 9.140234 71.024919
-34.028053 8.391995 70.864222
-33.943648 7.683368 69.767151
-33.857420 7.049943 68.882547
-33.930421 6.326952 68.731528
-33.935273 5.721792 68.503667
-33.803065 5.043112 68.213097
-33.880565 4.395721 67.841076
-34.026774 3.789179 67.416575
-34.000248 3.120347 67.049683
-34.179040 2.488157 66.564799
-34.318358 1.871284 66.284603
-34.491221 1.258178 65.895976
-34.729705 0.688500 65.335581
-35.091690 0.129861 65.092206
-35.125776 -0.459743 64.821372
-35.256530 -1.116513 64.517603
-35.385992 -1.619694 64.177097
-35.545785 -2.193188 63.974221
-35.513940 -2.918686 63.959161
-35.545761 -3.422459 63.895071
-35.482189 -3.853072 63.786033
-35.450328 -4.582246 63.849929
-35.322941 -5.056815 63.829229
-35.098804 -5.763433 63.921717
-36.368475 12.001780 73.290612
-36.286523 11.382010 73.305334
-35.822646 10.819245 72.891765
-35.255218 10.302653 72.454004
-34.834716 9.695434 72.140857
-34.861239 9.110629 71.908427
-34.533214 8.482354 71.503086
-34.235947 7.939656 71.357253
-34.358346 7.267835 71.036982
-34.405627 6.483243 70.467319
-34.449463 5.909219 70.274987
-34.145060 5.367068 70.202603
-34.002515 4.730765 69.996811
-34.039992 4.193688 69.694525
-34.069997 3.545043 69.284054
-34.295513 2.888337 68.636179
-34.415113 2.250507 68.333347
-34.607786 1.653593 68.097526
-34.838877 1.062731 68.038806
-35.441738 0.472910 67.519507
-35.753758 -0.139831 67.385713
-35.785747 -0.750630 67.452895
-36.100981 -1.243559 67.076225
-36.248431 -1.805742 66.787185
-36.617984 -2.387937 66.380999
-36.609393 -3.019453 66.279502
-36.569455 -3.579532 66.112498
-36.559498 -4.028164 65.842156
-36.465643 -4.728775 65.645728
-36.117726 -5.564986 65.668326
-35.677579 10.741812 74.326394
-35.471933 10.164917 73.959921
-35.366757 9.610201 73.458033
-34.915832 9.103855 72.968917
-34.758377 8.627945 72.847230
-34.646684 8.143521 72.701574
-34.327968 7.515417 72.454935
-34.314560 6.930530 72.217737
-34.195470 6.397090 72.113155
-34.064595 5.904213 72.095282
-34.098484 5.311982 71.833925
-34.048710 4.726549 71.530964
-33.956834 4.184957 71.206176
-33.898722 3.555647 70.618030
-34.022527 3.042047 70.355917
-34.123301 2.403971 70.268776
-34.104068 1.771304 70.072790
-34.387936 1.216877 69.943728
-34.304853 0.670804 69.899819
-34.340800 0.165217 69.965159
-34.575784 -0.380395 69.858322
-34.929598 -1.045455 69.495228
-35.407554 -1.616253 69.480155
-35.565912 -1.983925 69.248011
-36.166485 -2.700655 68.857508
-36.221720 -3.270611 68.753372
-36.154249 -3.806824 68.624902
-36.115061 -4.259905 68.602670
-36.175782 -4.910844 68.456538
-35.810503 -5.559305 68.339042
-36.190126 11.594758 74.887049
-35.917430 11.203059 74.654108
-35.595966 10.611278 74.480915
-35.330851 10.156187 73.968859
-34.897375 9.730436 73.285158
-34.629763 9.071976 73.001109
-34.656410 8.596464 72.898190
-34.445899 8.030998 72.725720
-34.239649 7.470279 72.408309
-34.201810 6.794220 72.258023
-34.119572 6.323190 72.100447
-34.119572 5.752626 72.100447
-33.953763 5.086669 71.782743
-34.064032 4.528405 71.284421
-33.848440 3.891083 71.026020
-33.826424 3.207644 70.421995
-33.898868 2.666938 70.321459
-33.998491 2.002748 70.112203
-34.140378 1.377470 69.986298
-34.195008 0.754353 69.768368
-34.375361 0.087750 69.801927
-34.516735 -0.452058 69.676463
-35.254257 -1.063301 69.702525
-35.425375 -1.681268 69.395839
-35.834312 -2.208588 69.174134
-36.130712 -2.981772 68.969239
-36.144043 -3.603251 68.744489
-36.172344 -4.139334 68.636289
-36.075165 -4.853721 68.424977
-35.710217 -5.591931 68.231964
-34.433628 11.304354 76.269661
-34.026381 10.916042 76.001232
-33.848896 10.346598 75.876017
-33.509721 9.868246 75.853028
-33.174022 9.346272 75.425560
-33.071693 8.755002 75.346983
-33.095365 8.264623 75.273614
-33.004420 7.781743 75.157687
-32.879001 7.309206 74.945653
-32.647881 6.688034 74.755589
-32.566532 6.080719 74.704392
-32.554935 5.616987 74.637234
-32.484883 4.982310 74.442756
-32.426179 4.447385 74.314993
-32.484712 3.912351 74.124443
-32.496389 3.414623 73.871809
-32.508149 2.770092 73.508348
-32.627240 2.258566 73.335775
-32.699376 1.672174 73.099746
-32.747762 1.229206 72.941428
-32.845251 0.561199 72.622448
-32.966808 -0.150359 72.445308
-33.186652 -0.565541 72.169663
-33.330619 -1.240781 72.249983
-33.670197 -1.881154 72.135146
-33.914166 -2.335715 72.004252
-34.224782 -2.989703 71.668120
-34.511211 -3.606860 71.411887
-34.601964 -4.148883 71.237512
-34.876989 -5.254807 70.709070
-33.268819 9.130797 75.358670
-33.196869 8.675226 75.038743
-33.153513 8.247552 75.091198
-33.067353 7.741329 74.939288
-32.998086 7.327741 74.817163
-33.019875 6.831045 74.790814
-32.709685 6.433271 74.699281
-32.718312 5.873695 74.584561
-32.452941 5.437472 74.380294
-32.514894 5.099484 74.358212
-32.598804 4.527622 74.309544
-32.655778 4.065304 74.082536
-32.553175 3.643448 73.835328
-32.748115 3.002172 73.653178
-32.672121 2.508654 73.317926
-32.680832 2.038230 73.200099
-32.676014 1.602277 72.990595
-32.707078 1.129361 72.845126
-32.840973 0.553133 72.683645
-32.840951 0.078730 72.412712
-32.997517 -0.362848 72.223948
-33.154015 -0.906114 72.035266
-33.358506 -1.411882 72.005450
-33.549415 -1.748215 71.883211
-33.909709 -2.345601 71.878103
-33.821354 -2.865163 71.501280
-34.414403 -3.310681 71.535457
-34.690175 -3.774939 71.308692
-34.739590 -4.380198 71.196013
-34.937698 -5.082832 70.956869
-33.841585 11.029900 75.934018
-33.667564 10.544941 76.120111
-33.332621 10.103866 75.898367
-33.150625 9.531079 75.769909
-32.914103 8.931415 75.573264
-32.667887 8.484624 75.518439
-32.482319 8.044787 75.387719
-32.505291 7.231952 75.314412
-32.391720 6.941509 75.069175
-32.219913 6.305298 75.007762
-32.081556 5.821254 74.834326
-31.998083 5.182001 74.729691
-31.897552 4.654667 74.551812
-31.824533 4.084606 74.408141
-31.863998 3.647615 74.405628
-31.813340 3.113445 74.184928
-31.813440 2.539656 73.921529
-31.819197 2.030815 73.769612
-31.871248 1.343418 73.191201
-31.992018 0.860529 73.183860
-32.078976 0.304178 73.023402
-32.166344 -0.142921 72.862186
-32.254127 -0.741666 72.700207
-32.375608 -1.451466 72.692959
-32.488151 -2.132269 72.449791
-32.577202 -2.513598 72.285905
-32.695226 -3.233502 72.159499
-32.996245 -3.828041 72.221553
-33.058411 -4.405807 72.018438
-33.394296 -5.320397 71.838521
-34.729473 10.362778 75.122860
-34.557149 9.939142 74.846426
-34.374740 9.429415 74.786057
-34.199102 8.948758 74.454073
-33.947730 8.529089 74.051161
-33.824819 7.951510 73.895962
-33.683048 7.514867 73.798735
-33.582106 6.952347 73.655141
-33.346295 6.453876 73.394302
-33.358352 5.946852 73.308117
-33.359188 5.425406 73.204996
-33.387675 4.908965 73.091492
-33.253469 4.365058 72.809035
-33.406074 3.765289 72.468799
-33.260281 3.199868 72.171973
-33.253628 2.622937 71.811047
-33.287441 2.134608 71.656027
-33.352784 1.566054 71.478664
-33.490676 0.965302 71.334972
-33.517980 0.416542 71.090540
-33.686439 -0.137549 71.012937
-33.835375 -0.679086 70.855864
-34.306381 -1.237592 70.853987
-34.487395 -1.714741 70.639525
-34.872010 -2.277095 70.526119
-34.976033 -2.923468 70.235259
-35.279223 -3.456966 70.139973
-35.431259 -3.957136 69.972491
-35.407377 -4.616959 69.810495
-35.323957 -5.337381 69.594417
-32.845739 9.651833 75.552418
-32.612919 9.034336 75.348446
-32.384762 8.490971 75.369701
-32.121297 7.857679 75.265272
-31.860247 7.286316 75.236055
-31.629925 6.688721 75.144767
-31.461015 6.242442 74.966360
-31.485298 5.698183 74.751881
-31.285220 5.100144 74.635055
-31.219008 4.569382 74.608805
-31.142856 3.590778 74.352627
-31.164538 2.998854 74.095530
-31.057562 2.397998 73.900278
-31.242092 1.728135 73.588198
-31.163107 1.229236 73.284403
-31.153003 0.653220 73.045015
-31.215867 0.000495 72.951633
-31.178540 -0.617768 72.857691
-31.304972 -1.167875 72.669339
-31.536569 -1.720795 72.561171
-31.733867 -2.278550 72.397768
-31.829157 -2.951056 72.192090
-32.067062 -3.547530 72.164145
-32.400095 -4.619482 71.760662
-32.740762 -4.986016 71.477993
-33.776166 11.892930 75.336854
-33.128910 11.325661 75.162551
-32.644422 10.762646 75.032080
-32.199899 10.126807 75.165013
-32.037040 9.550815 75.039830
-31.742789 9.189107 74.805620
-31.543422 8.760459 74.579917
-31.291508 8.081783 74.651401
-31.094788 7.675555 74.508425
-30.962768 7.129034 74.399082
-30.830501 6.754637 74.289535
-30.697988 6.275557 74.179784
-30.656891 5.735792 73.995121
-30.609106 5.307723 73.682473
-30.464010 4.733403 73.357912
-30.294046 4.319655 73.185651
-30.126006 3.655979 73.055960
-30.111001 3.140408 72.796231
-30.013727 2.645218 72.787408
-29.980456 2.151478 72.769985
-30.000818 1.662424 72.569467
-30.090810 1.062948 72.446731
-30.111644 0.532017 72.244034
-30.209833 -0.001954 72.252699
-30.204891 -0.430024 72.164167
-30.192478 -0.932776 71.941806
-30.356274 -1.435133 71.941219
-30.385286 -2.225911 71.869551
-30.508959 -3.060264 71.716353
-30.574455 -3.565669 71.707025
-28.991848 1.968034 70.794933
-29.017806 1.658933 70.927527
-29.003781 1.406446 70.959597
-29.051152 1.155444 70.936433
-29.111382 0.922776 70.862794
-29.094682 0.634586 70.858336
-29.066520 0.364176 70.922614
-29.080855 0.130338 71.123087
-29.084750 -0.174342 71.177557
-29.149948 -0.461337 71.177195
-29.201096 -0.748050 71.208679
-29.221504 -0.980226 71.267493
-29.304575 -1.284941 71.289721
-29.322425 -1.606995 71.312267
-29.356877 -1.785698 71.339247
-29.343947 -2.016700 71.389009
-29.390100 -2.358865 71.348139
-29.390100 -2.627486 71.348139
-29.390100 -2.878199 71.348139
-29.456557 -3.183012 71.365926
-29.460145 -3.430891 71.420119
-29.475557 -3.700461 71.406510
-29.466113 -3.962289 71.510249
-29.525387 -4.255766 71.419850
-29.615836 -4.696577 71.301804
-28.129060 7.967039 74.218398
-27.994872 7.530390 73.926740
-27.882326 7.188446 73.658780
-27.831966 6.774869 73.369355
-27.685742 6.321637 73.105563
-27.546463 5.797643 72.802034
-27.571589 5.423506 72.690206
-27.528685 5.043098 72.211633
-27.562487 4.737200 72.059633
-27.452593 4.230968 71.735251
-27.493578 3.665936 71.686946
-27.574115 3.414235 71.734600
-27.567166 2.887323 71.628777
-27.577297 2.539253 71.445040
-27.627129 2.043144 71.357449
-27.773245 1.613992 71.385979
-27.779864 1.007031 71.492554
-27.779864 0.509277 71.492554
-27.762548 0.082680 71.569941
-27.795123 -0.272462 71.560131
-27.829874 -0.771756 71.405145
-27.907984 -1.159063 71.598166
-27.958046 -1.622426 71.511069
-28.017040 -2.017044 71.384944
-28.067387 -2.589757 71.297322
-28.017040 -3.049069 71.384944
-28.165493 -3.552333 71.267751
-28.234024 -3.811229 71.101653
-28.436330 -4.412066 71.149809
-28.584379 -5.297408 70.776434
-28.361648 9.562347 74.538134
-27.486654 9.023877 74.329586
-27.620271 8.547035 74.288579
-27.505241 7.996517 74.239727
-27.371781 7.556873 74.280809
-27.264597 7.028579 74.039454
-26.926115 6.563268 73.961115
-26.792109 5.966034 73.740345
-26.773210 5.580821 73.567595
-26.636136 5.083048 73.575345
-26.554858 4.512130 73.342384
-26.413697 4.016302 73.315547
-26.148361 3.586551 73.169606
-26.231837 3.042499 72.938497
-26.240506 2.645797 72.774416
-26.286729 2.026610 72.692992
-26.324942 1.563026 72.540059
-26.427443 1.005762 72.208295
-26.495963 0.504011 72.065384
-26.600343 0.030834 71.728003
-26.596350 -0.444790 71.691362
-26.560216 -1.053021 71.359797
-26.630056 -1.567347 71.212603
-26.622033 -2.144873 71.138118
-26.632034 -2.600065 70.964049
-26.507389 -3.115225 70.875067
-26.585709 -3.634631 70.800902
-26.660257 -4.158065 70.688724
-26.765456 -4.715923 70.589017
-27.114350 -5.584530 70.005417
-27.889443 9.343859 74.331019
-27.295654 8.831477 73.877570
-26.858915 8.298868 73.924775
-26.787812 7.753644 73.872179
-26.200588 6.885878 73.666318
-26.114995 6.356358 73.405000
-25.902046 5.925942 73.429895
-25.673532 5.407064 73.366539
-25.709202 5.002336 73.302152
-25.657060 4.592326 73.218041
-25.675356 4.091454 73.125326
-25.730010 3.595346 72.906657
-25.748972 3.156558 72.752252
-25.501946 2.608977 72.722946
-25.486551 2.204587 72.328490
-25.416808 1.792432 72.153985
-25.276342 1.282912 71.989040
-25.366101 0.744479 71.636696
-25.474402 0.393651 71.309598
-25.457700 -0.153149 71.092971
-25.476780 -0.605754 70.869927
-25.442531 -1.125486 70.559262
-25.317575 -1.577868 70.420845
-25.335891 -2.033353 70.322533
-25.554840 -2.637889 69.837885
-25.610428 -3.168043 69.667042
-25.502041 -3.526544 69.556561
-25.667689 -4.036754 69.300049
-25.723926 -4.639738 69.126748
-26.105397 -5.352718 67.994497
-28.210616 9.444973 74.351488
-27.264776 8.728929 73.932411
-26.787266 8.403588 73.886686
-26.618162 7.862621 73.704650
-26.538641 7.395733 73.648020
-26.056790 6.856611 73.503125
-25.439424 6.317718 73.092121
-25.348428 5.904650 72.452092
-25.134470 5.440121 72.164504
-24.888340 5.002274 72.126530
-24.620096 4.537043 71.921695
-24.438526 4.014570 71.838207
-24.557724 3.546925 71.486636
-24.543317 3.226971 71.386139
-24.443679 2.776321 71.165703
-24.603620 2.336327 70.853998
-24.688431 1.826648 70.487345
-24.695230 1.343978 70.293959
-24.661424 0.989266 70.057226
-24.844993 0.474180 69.645679
-24.986852 0.117297 69.417670
-24.998837 -0.371313 69.255720
-25.064080 -0.796761 68.973904
-25.270999 -1.227051 68.690607
-25.305401 -1.754629 68.431798
-25.308013 -2.282427 68.198439
-25.374533 -2.748921 67.911714
-25.451126 -3.084995 67.693208
-25.508452 -3.721164 67.334476
-25.598390 -4.363038 66.946816
-28.119986 9.427556 74.489886
-27.523543 8.941226 73.931923
-26.474802 8.402497 73.360016
-26.555797 8.012425 72.868396
-26.123831 7.556392 72.486394
-25.499246 7.123940 71.996021
-25.436935 6.718528 71.523704
-25.363805 6.193309 71.275852
-25.316951 5.747913 70.920914
-25.340772 5.306095 70.641218
-25.406754 4.978703 70.371511
-25.220487 4.557988 70.036696
-25.257371 4.152780 69.700741
-25.114471 3.734263 69.463837
-25.026758 3.320171 69.183185
-25.160396 2.879361 68.810436
-25.295005 2.435347 68.434979
-25.418465 2.024613 68.200378
-25.345623 1.644418 68.037807
-25.510985 1.231485 67.722426
-25.734214 0.777841 67.357482
-25.731950 0.318844 67.179315
-26.045550 -0.103619 66.917098
-26.028618 -0.527631 66.704570
-26.244138 -0.917328 66.477880
-26.052158 -1.301499 66.229994
-25.904411 -1.762448 65.991412
-25.843879 -2.225153 65.769831
-25.753659 -2.648694 65.482688
-25.808597 -3.271560 65.252030
-27.723875 9.968232 74.240000
-27.140797 9.418221 73.975125
-26.815873 8.954887 73.498265
-26.400681 8.520636 71.887815
-26.128829 8.109072 71.256502
-26.101340 7.644664 70.984847
-25.992145 7.171236 70.691603
-25.810411 6.695987 70.203552
-25.747205 6.309515 69.538774
-25.862597 5.895160 69.151618
-25.880110 5.541668 68.798610
-25.705274 5.027024 68.430458
-25.502382 4.583725 68.086662
-25.511337 4.157418 67.611032
-25.655117 3.626799 67.191769
-25.986437 3.175293 66.655338
-25.837762 2.766553 66.564820
-25.979686 2.334862 66.228106
-26.206184 1.865361 65.904848
-26.472312 1.502931 65.677968
-26.254108 1.018099 65.514446
-26.386524 0.501296 65.137259
-26.311579 0.129903 64.938394
-26.447665 -0.354006 64.776059
-26.275600 -0.910690 64.529384
-26.403919 -1.398489 64.239892
-26.563025 -2.152322 63.922107
-26.723296 -2.836570 63.601996
-26.660041 -3.436309 63.434893
-26.742935 -3.669307 63.226720
-26.903502 10.050550 73.548284
-26.501971 9.167908 71.662493
-26.341107 8.653992 70.906998
-26.155854 8.124825 70.684305
-26.060381 7.597950 70.361854
-25.884932 7.005214 69.658035
-25.992602 6.437742 67.524909
-25.929139 5.839451 66.749922
-25.876374 5.337069 66.270467
-26.044276 4.900893 66.079375
-26.105602 4.387700 65.766753
-26.130027 4.017398 65.642244
-26.144022 3.536813 65.241646
-26.419572 3.010695 65.072414
-26.730937 2.413289 64.718648
-26.860604 2.110590 64.380101
-26.984576 1.615998 64.239326
-27.124608 1.086013 63.842725
-27.170309 0.690863 63.601799
-27.224920 0.101746 63.398655
-27.227123 -0.355064 63.302286
-27.407125 -0.780694 63.286129
-27.233704 -1.133938 63.014496
-27.278738 -1.617558 62.777697
-27.371221 -2.069804 62.626723
-27.404658 -2.551178 62.450298
-27.426883 -2.935756 62.333035
-27.546482 -3.325992 62.289875
-27.610715 -3.833667 62.033291
-27.842056 -4.606822 61.817623
-28.998089 10.085566 73.988512
-28.506968 9.484496 73.454215
-28.267721 8.833228 72.591554
-28.192193 8.224959 72.191083
-28.025040 7.773147 72.207852
-27.949990 7.153760 71.586056
-27.686233 6.566791 71.139530
-27.639018 5.970159 70.649112
-27.615704 5.481430 70.367305
-27.565642 4.903274 70.179524
-27.449787 4.397531 69.840537
-27.491587 3.851866 69.498662
-27.620715 3.310293 69.166643
-27.748487 2.726761 68.965959
-27.851397 2.265943 68.646147
-28.010365 1.662413 68.273753
-28.064093 1.192164 67.778806
-28.133371 0.616517 67.577737
-29.316309 10.347175 73.713701
-29.017125 9.714805 73.016529
-28.591446 8.976325 71.743041
-28.535669 8.339180 71.166761
-28.351669 7.881284 71.171374
-28.292687 7.216350 70.359357
-28.066292 6.568553 69.728738
-28.062472 5.972221 69.103496
-28.036951 5.431735 68.767159
-28.030395 4.813387 68.481614
-27.897251 4.340232 68.089614
-28.030532 3.769648 67.590220
-28.356893 3.172165 67.165162
-28.506812 2.568892 66.979689
-33.922888 11.784738 74.887614
-33.363780 11.123825 74.370586
-32.938255 10.545640 73.988065
-32.389106 9.825869 73.628555
-32.154721 9.259250 73.310871
-31.993487 8.725538 72.913707
-31.809911 8.234574 72.493623
-31.482661 7.507204 72.168045
-31.274593 7.035895 71.775233
-31.145738 6.442174 71.582617
-31.029916 5.996180 71.221913
-30.961160 5.448030 70.851306
-31.039980 4.857111 70.440892
-31.206107 4.328591 69.983483
-31.271308 3.771945 69.638224
-31.226778 3.278227 69.281631
-31.253728 2.702193 69.093890
-31.248857 2.199190 68.695752
-28.991848 1.968034 70.794933
-29.053341 2.018202 70.576598
-29.114835 2.068370 70.358263
-29.176328 2.118538 70.139928
-29.237821 2.168706 69.921593
-29.299314 2.218874 69.703259
-29.360807 2.269042 69.484924
-29.422301 2.319211 69.266589
-29.483794 2.369379 69.048254
-29.545287 2.419547 68.829919
-29.606780 2.469715 68.611585
-29.668273 2.519883 68.393250
-29.729767 2.570051 68.174915
-29.791260 2.620219 67.956580
-29.852753 2.670387 67.738245
-29.914246 2.720556 67.519911
-29.975739 2.770724 67.301576
-30.037233 2.820892 67.083241
-30.098726 2.871060 66.864906
-30.160219 2.921228 66.646571
-30.221712 2.971396 66.428237
-31.248857 2.199190 68.695752
-31.078984 2.202528 68.693271
-30.909111 2.205865 68.690791
-30.739238 2.209203 68.688311
-30.569365 2.212541 68.685831
-30.399492 2.215878 68.683351
-30.229619 2.219216 68.680870
-30.059746 2.222554 68.678390
-29.889873 2.225891 68.675910
-29.720000 2.229229 68.673430
-29.550127 2.232566 68.670949
-29.380254 2.235904 68.668469
-29.210381 2.239242 68.665989
-29.040508 2.242579 68.663509
-28.870635 2.245917 68.661029
-28.700762 2.249255 68.658548
-28.530889 2.252592 68.656068
-28.361016 2.255930 68.653588
-28.191143 2.259267 68.651108
-28.021270 2.262605 68.648627
-27.851397 2.265943 68.646147
-30.120353 2.083612 69.745342
-30.066163 2.110365 69.634935
-30.011973 2.137118 69.524527
-29.957783 2.163871 69.414120
-29.903593 2.190623 69.303712
-29.849403 2.217376 69.193305
-29.795213 2.244129 69.082897
-29.741023 2.270882 68.972490
-29.686833 2.297635 68.862082
-29.632644 2.324388 68.751674
-29.578454 2.351141 68.641267
-29.524264 2.377894 68.530859
-29.470074 2.404646 68.420452
-29.415884 2.431399 68.310044
-29.361694 2.458152 68.199637
-29.307504 2.484905 68.089229
-29.253314 2.511658 67.978822
-29.199124 2.538411 67.868414
-29.144934 2.565164 67.758007
-29.090745 2.591917 67.647599
-29.036555 2.618669 67.537192
