ply
format ascii 1.0
element vertex 615
property float x
property float y
property float z
element face 0
property list uchar int vertex_index
end_header
-28.345809 13.884389 62.918084
-28.197858 13.278873 62.943559
-28.103325 12.805945 62.969889
-27.992526 12.269059 63.079623
-27.794627 11.707840 63.356907
-27.719891 11.261248 63.553481
-27.590496 10.704085 63.750423
-27.529402 10.247017 63.921004
-27.492878 9.742206 64.150593
-27.378915 9.162668 64.264484
-27.232002 8.650984 64.494798
-26.957909 8.024239 64.490417
-26.750849 7.455522 64.516303
-26.448116 6.965918 64.775408
-26.184866 6.339462 64.800639
-25.854742 5.728062 65.002283
-25.716476 5.250727 65.208321
-25.546093 4.786943 65.265313
-25.403162 4.239651 65.322855
-25.286185 3.703315 65.591665
-25.051679 3.064876 65.557663
-24.979706 2.429431 65.586679
-24.778115 1.983600 65.492928
-24.602390 1.353251 65.762231
-24.531114 0.772393 65.943763
-24.279599 0.327728 66.092662
-24.094597 -0.259498 66.428756
-24.178922 -0.874411 66.275563
-23.970332 -1.524207 66.550887
-23.838784 -2.045126 67.050094
-29.612903 11.677208 62.262172
-29.403767 11.234762 62.609903
-29.265149 10.777395 62.938462
-29.112941 10.392232 63.076498
-28.924696 10.030992 63.385986
-28.719080 9.622213 63.563393
-28.608241 9.153476 63.760784
-28.425703 8.654740 63.922282
-28.296160 8.168330 64.016009
-28.054366 7.730334 64.280211
-27.851432 7.291685 64.337781
-27.690299 6.884222 64.484275
-27.554814 6.309626 64.612372
-27.284437 5.853075 64.838429
-27.092724 5.493504 65.007709
-27.410117 4.975166 65.140841
-27.055159 4.432311 65.431143
-26.866784 3.978170 65.538328
-26.646691 3.607327 65.699343
-26.456005 3.092864 65.807940
-26.285611 2.493751 65.963499
-25.951956 2.005504 66.176434
-25.586376 1.540981 66.412380
-25.347217 1.039311 66.430292
-25.193720 0.563119 66.385487
-24.970375 0.030472 66.484862
-24.519953 -1.100262 66.685272
-24.339006 -1.472630 66.847546
-24.113853 -1.822461 67.137183
-24.113853 -2.107578 67.137183
-30.463642 11.273445 62.178846
-30.278488 10.948342 62.518402
-30.154747 10.569398 62.773034
-30.097301 10.156690 63.059393
-30.008872 9.872652 63.284148
-29.892642 9.416350 63.566641
-29.839213 9.080750 63.719675
-29.806896 8.719121 63.957832
-29.869186 8.273865 64.130175
-29.710858 7.943260 64.373068
-29.679653 7.510633 64.699548
-29.668737 7.169984 65.074556
-29.650202 6.817934 65.559432
-29.562460 6.380528 65.610125
-29.528999 6.001679 65.905951
-29.516989 5.533905 66.295116
-29.521582 5.217969 67.024882
-31.707834 10.655013 62.886323
-31.689450 10.277653 63.077397
-31.590965 9.853435 63.406048
-31.470907 9.408729 63.629643
-31.348916 9.022155 63.818838
-31.283627 8.604992 63.922608
-31.195884 8.202493 64.152034
-31.187786 7.687880 64.169667
-31.066704 7.288557 64.472011
-30.935365 6.832949 64.758146
-30.840336 6.447189 64.770595
-30.816292 5.950666 64.861675
-30.840149 5.504095 65.161339
-33.323718 10.383295 63.746368
-33.258160 10.026323 63.899245
-33.113282 9.600615 63.970660
-33.001242 9.175083 64.177609
-32.897074 8.711334 64.259534
-32.750973 8.263437 64.331757
-32.555156 7.875897 64.306589
-32.500372 7.353495 64.379322
-32.331560 6.932591 64.554392
-32.223616 6.484755 64.485430
-32.065652 6.038769 64.426148
-32.008418 5.537012 64.347947
-31.920077 5.119286 64.391381
-31.779233 4.727909 64.551953
-31.640003 4.272179 64.605248
-31.641869 3.775160 64.910804
-31.558910 3.338683 65.044402
-31.547543 2.900197 65.173878
-31.515724 2.484262 65.454478
-31.531769 1.969525 65.681905
-31.484777 1.510740 66.053890
-31.513161 1.101470 66.311392
-31.476847 0.573800 66.394011
-31.524245 0.178032 66.774565
-31.621293 -0.183914 67.101476
-34.300457 10.132310 63.815151
-34.215396 9.732726 63.833063
-34.155102 9.348436 64.119834
-34.038786 8.844512 64.259370
-33.964919 8.504362 64.390398
-33.847322 7.990725 64.484809
-33.729670 7.648719 64.625940
-33.665190 7.224061 64.686245
-33.557344 6.751548 64.755881
-33.449266 6.374179 64.825667
-33.362641 5.899309 64.890974
-33.297573 5.395108 64.904864
-33.167468 4.936331 64.885778
-33.080656 4.480419 64.904296
-33.003840 4.058440 65.085074
-32.905362 3.532411 65.176865
-32.806607 3.150124 65.268915
-32.674023 2.745809 65.439673
-32.572342 2.270276 65.724179
-32.471029 1.836851 65.914335
-32.369832 1.301893 66.057003
-32.210625 0.913764 66.334522
-32.084068 0.398650 66.582393
-31.946881 -0.045925 66.760101
-31.851723 -0.319541 67.028753
-35.506932 10.344673 63.720417
-35.436655 9.968103 63.949410
-35.471003 9.566455 64.272411
-35.321512 9.113788 64.395411
-35.201916 8.630906 64.441761
-35.098522 8.168026 64.652000
-34.974609 7.707947 64.759307
-34.951134 7.284069 64.715840
-34.869773 6.772155 64.869280
-34.807469 6.321217 64.923250
-34.725505 5.915207 65.077676
-34.655026 5.427099 65.151672
-34.545219 4.955874 65.221169
-34.446841 4.430043 65.312929
-34.345163 4.022547 65.259369
-34.238438 3.624875 65.371048
-34.169718 3.083603 65.592124
-34.033177 2.539156 65.827662
-33.862275 2.152377 65.891465
-33.768567 1.600663 66.070774
-33.644407 1.159937 66.375828
-33.524284 0.658214 66.619473
-33.360108 0.171477 66.816125
-33.163365 -0.299175 66.988199
-32.916586 -0.774216 67.331404
-38.219956 13.022229 64.597418
-38.104233 12.628220 64.641355
-38.046751 12.082743 64.489413
-37.955071 11.576409 64.540813
-37.786808 10.979593 64.514670
-37.619879 10.496227 64.515860
-37.367219 10.073251 64.706423
-37.133900 9.526738 64.850917
-36.987746 9.116295 64.832472
-36.800003 8.642944 64.965642
-36.584971 8.135774 65.063913
-36.412508 7.553384 65.037764
-36.218187 7.034951 65.088095
-36.119648 6.476637 65.085186
-36.025096 6.039778 65.195099
-35.974116 5.474066 65.151312
-35.976139 4.885542 65.207810
-35.810546 4.425250 65.437104
-35.736090 3.775332 65.442209
-35.639918 3.385757 65.553802
-35.495253 2.912787 65.736541
-35.348760 2.464037 65.891648
-35.228995 1.813339 66.143042
-35.105441 1.270410 66.279205
-34.957390 0.696419 66.496704
-34.704778 0.146840 66.684372
-34.577876 -0.319292 66.793744
-34.401607 -0.937023 67.128239
-34.351745 -1.439320 67.293728
-34.330107 -1.889858 67.651207
-38.416364 13.925614 66.330112
-38.511016 13.368199 66.287384
-38.492120 12.814612 66.310667
-38.501629 12.287522 66.409697
-38.463775 11.818258 66.456436
-38.397382 11.214307 66.427393
-38.330873 10.662763 66.398300
-38.044090 10.177794 66.453550
-37.928681 9.603873 66.445979
-37.715809 9.098170 66.481898
-37.452381 8.705104 66.540002
-37.187159 8.032160 66.523111
-37.107954 7.524887 66.543274
-36.989084 7.073975 66.535749
-36.908636 6.457448 66.631873
-36.928062 5.827990 66.683714
-36.898195 5.255531 66.681892
-36.716787 4.780141 66.823423
-36.564292 4.354432 66.967706
-36.534948 3.664950 66.889363
-36.371560 3.095897 67.008125
-36.237695 2.632954 67.129302
-36.083354 2.056105 67.198462
-35.865080 1.478128 67.342615
-35.552677 1.036469 67.405203
-35.561223 0.250414 67.510103
-35.391544 -0.453365 67.633151
-35.200705 -0.963840 67.703438
-34.857331 -1.510344 67.873712
-34.432763 -1.951910 68.096631
-37.918597 14.362288 67.909213
-38.073121 13.712863 67.943399
-38.165537 13.181268 67.991791
-38.278079 12.544911 68.058459
-38.329231 12.024096 68.139328
-38.369984 11.458007 68.176059
-38.318923 10.990911 68.095301
-38.073696 10.478198 68.083427
-37.950474 9.964194 68.112509
-37.671054 9.397519 68.107947
-37.210734 8.951790 68.192396
-37.136534 8.447942 68.162366
-37.093880 7.861299 68.124857
-36.923161 7.290384 68.045547
-36.869072 6.780644 67.962616
-36.772318 6.247292 67.913110
-36.708083 5.733477 67.927795
-36.665422 4.800027 67.961502
-36.622712 4.177945 67.995247
-36.330542 3.492069 67.990018
-36.211604 2.921470 68.065414
-35.950321 2.275159 68.197875
-35.764994 1.700741 68.361826
-35.820382 1.198610 68.373207
-35.722189 0.672737 68.468784
-35.522984 0.119540 68.515283
-35.334468 -0.516474 68.608062
-35.190573 -1.048687 68.739466
-34.806474 -1.508911 68.780847
-34.545530 -1.702067 68.891466
-36.868490 15.854945 69.708430
-36.986647 15.237960 69.659520
-37.130593 14.510517 69.696652
-37.268960 13.704977 69.771766
-37.442561 12.983488 69.708320
-37.518344 12.203224 69.688680
-37.366597 11.506289 69.728007
-37.140041 10.799179 69.768226
-36.798393 10.193018 69.670579
-36.506436 9.426709 69.595572
-36.369065 8.795558 69.480182
-36.208762 8.163193 69.388549
-36.007741 7.511024 69.306199
-35.531024 6.697284 69.233225
-35.231533 6.059508 69.268036
-35.914885 16.759844 71.153487
-36.067378 16.195757 71.170757
-36.370030 15.529667 71.205033
-36.370030 14.849500 71.205033
-36.650030 14.159182 71.361564
-36.654924 13.515323 71.330916
-36.681783 12.960643 71.352622
-36.586430 12.334897 71.379473
-36.510397 11.676839 71.283504
-36.347761 11.163607 71.152291
-36.233839 10.407835 71.095249
-36.064518 9.919963 70.993733
-35.908921 9.332045 70.798241
-35.648834 8.785990 70.658933
-35.615931 8.100380 70.667704
-35.518682 7.592166 70.483402
-35.206456 6.738315 70.444781
-34.995648 6.160830 70.560549
-34.786374 5.504691 71.070771
-34.817849 4.829382 71.485620
-34.547571 4.316286 71.560132
-34.551635 3.647114 71.740746
-34.551635 3.047830 71.740746
-34.181681 2.228516 71.813307
-33.960865 1.867511 71.752455
-33.941320 1.061647 71.666079
-33.674016 0.526620 71.462734
-33.639136 -0.081743 71.472175
-33.788143 -0.823618 71.585428
-33.817845 -1.295044 71.608003
-35.281306 16.046264 72.343798
-35.340684 15.348987 72.518936
-35.399760 14.779891 72.693182
-35.431089 14.173209 72.752567
-35.341323 13.565616 72.768748
-35.184427 12.852218 72.720952
-35.243030 12.289071 72.645188
-35.005625 11.789120 72.446895
-34.860868 11.150764 72.174850
-34.848272 10.499006 72.088530
-34.839223 9.977431 71.945942
-34.806766 9.291351 71.884747
-34.708986 8.780946 71.700395
-34.639960 8.158851 71.633479
-34.583708 7.558725 71.653976
-34.631937 6.699556 72.058879
-34.565570 6.091673 72.247829
-34.538907 5.547941 72.385304
-34.568168 4.907649 72.501676
-34.489129 4.213313 72.603775
-34.442862 3.609717 72.766074
-34.347454 2.791181 72.838082
-34.159128 2.392690 72.617723
-33.925954 1.607151 72.503043
-34.059142 0.968767 72.435362
-33.847920 0.430512 72.237158
-33.851033 -0.304933 72.180554
-33.668826 -1.011548 72.098964
-33.777060 -1.682130 72.170666
-33.726060 -1.941190 72.078045
-33.791160 15.895146 72.730811
-33.660146 15.155382 72.997250
-33.667449 14.551035 73.177361
-33.636091 13.885336 73.393128
-33.573749 13.277285 73.103211
-33.605050 12.761132 72.885356
-33.515646 12.124340 72.687114
-33.524428 11.595706 72.654904
-33.495084 10.981149 72.444428
-33.460727 10.341438 72.357552
-33.313448 9.890327 72.040242
-33.278558 9.244260 71.952104
-33.339820 8.612249 71.941458
-33.335596 7.993063 71.847708
-33.269909 7.432817 71.764336
-33.186822 6.725503 72.187437
-33.152390 6.032996 72.535090
-33.208833 5.544689 72.648547
-33.096690 4.876371 72.852174
-33.187503 4.179261 73.049623
-33.187503 3.647403 73.049623
-33.161806 2.933947 73.145092
-33.209113 2.396750 73.287820
-33.213352 1.752784 73.166328
-33.260588 1.075581 73.097505
-33.423619 0.337266 73.129504
-33.509822 -0.134597 73.023561
-33.467900 -0.757912 72.756717
-33.555795 -1.148977 72.433842
-33.560782 -1.927647 72.309101
-31.962008 15.663629 71.895724
-31.951725 15.037610 72.200889
-31.970527 14.355999 72.514411
-32.005696 13.722612 72.629460
-32.030548 13.185961 72.571483
-32.082427 12.531955 72.489907
-32.076350 11.999075 72.385588
-32.085164 11.382348 72.046789
-32.047732 10.880702 71.894397
-32.003880 10.237930 71.634684
-31.936605 9.793234 71.469101
-31.803390 9.018255 71.171870
-31.616751 8.475038 70.958324
-31.602821 7.842630 70.740015
-31.525481 7.165563 70.887537
-31.462893 6.689877 71.250522
-31.481883 6.011968 71.536699
-31.547582 5.322132 71.666098
-31.480896 4.651845 71.950156
-31.568409 4.189839 71.984038
-31.633553 3.568778 72.111896
-31.771954 2.878560 72.505251
-31.923070 2.294284 72.664951
-32.173414 1.748592 72.592913
-32.289327 1.197791 72.637763
-32.546514 0.402494 72.669493
-32.659052 -0.118408 72.645124
-32.802508 -0.731842 72.666634
-32.902678 -1.414984 72.363367
-33.171050 -1.988138 71.912590
-31.135492 15.660515 71.895425
-31.001447 15.010233 72.174462
-31.109995 14.240686 72.456031
-30.986726 13.447905 72.565383
-31.025570 12.893499 72.499589
-31.057997 12.210842 72.345081
-31.081918 11.592708 72.070758
-30.947423 10.920158 71.744679
-30.770256 10.257978 71.453652
-30.716587 9.686398 71.045696
-30.627684 9.040056 70.764693
-30.572635 8.284009 70.348608
-30.413527 7.740731 70.329737
-30.233724 7.026975 70.059682
-30.004603 6.532311 69.489294
-30.243734 16.742388 71.478883
-29.986370 16.078784 71.886015
-29.893905 15.406573 72.313332
-29.735968 14.556362 72.658610
-29.610617 13.921773 72.595337
-29.408595 13.175139 72.363561
-29.318223 12.871176 72.259878
-29.349829 12.305981 72.377164
-29.295573 11.585444 72.233893
-29.199810 10.899444 71.878881
-29.109674 10.331988 71.485983
-29.124771 9.869348 71.128144
-29.135812 9.224190 70.930645
-29.076938 8.557516 70.649597
-29.143250 7.966877 70.170507
-29.166735 7.466129 70.198428
-28.975157 6.794432 69.840241
-28.699160 6.042111 69.598846
-28.338825 5.494821 69.477020
-28.039585 4.925280 69.166851
-27.698661 4.240124 69.071686
-27.399522 3.554999 68.895777
-26.977360 2.809780 68.533430
-26.545901 2.305170 68.382721
-26.202890 1.509740 68.028483
-25.895911 0.927241 68.026468
-25.513963 0.149352 67.674560
-25.315844 -0.374342 67.535203
-24.970758 -1.165617 67.316582
-24.504248 -1.774284 66.781782
-28.820178 17.611652 70.157614
-28.466142 16.714100 70.540990
-28.318349 16.097364 70.838894
-28.137341 15.362673 71.090909
-27.774052 14.566480 71.290434
-27.510120 13.772830 71.546721
-27.410088 13.198099 71.454115
-27.366637 12.564124 71.344012
-27.353659 12.026798 71.241913
-27.318856 11.417806 70.968133
-27.305835 10.682968 70.631160
-27.452254 10.202636 70.367831
-27.470289 9.454339 70.271065
-27.502189 8.821403 70.041273
-27.497847 8.292144 70.005893
-27.484792 7.636466 69.899536
-27.167747 6.835755 69.779404
-26.877181 5.971119 69.632032
-26.699139 5.529872 69.652608
-26.439635 4.698354 69.513675
-26.148494 4.233328 69.366085
-25.982002 3.533857 69.252095
-25.778686 2.901471 69.093433
-25.642840 2.300037 68.987423
-25.339049 1.564367 68.766365
-25.137432 0.861168 68.432260
-24.848356 0.186416 68.319194
-24.549135 -0.559027 67.956373
-24.317097 -1.241605 67.645110
-24.063601 -1.648955 67.576916
-28.166071 17.234489 68.646787
-27.674924 16.489304 68.942969
-27.233600 15.648600 69.215786
-26.894592 14.957609 69.250503
-26.616405 14.322574 69.488674
-26.312983 13.565490 69.546788
-26.162149 12.839196 69.575677
-26.132270 12.178163 69.550940
-26.132270 11.594934 69.550940
-26.303954 10.969545 69.436474
-26.497996 10.510344 69.235096
-26.605717 9.623339 69.531544
-26.715104 9.070379 69.673756
-26.543758 8.356295 69.635007
-26.381786 7.711947 69.706328
-26.061276 6.911060 69.696269
-25.942070 6.484368 69.597573
-25.644067 5.708542 69.350844
-25.396160 5.113315 69.348649
-25.168046 4.458535 69.109112
-24.980065 3.681921 69.004137
-24.920626 3.179056 68.954924
-24.801749 2.521463 68.856498
-24.673531 1.901263 68.800938
-24.408433 1.164293 68.732858
-24.298953 0.586046 68.591803
-24.156997 -0.108726 68.272005
-24.130835 -0.652777 67.893906
-23.957516 -1.238641 67.545306
-24.017674 -1.923835 66.553658
-28.475996 17.244959 67.713243
-27.983406 16.443375 67.983525
-27.577927 15.675815 68.198693
-27.087170 15.020544 68.380946
-26.381928 14.046034 68.485548
-26.299635 13.464602 68.495371
-25.966448 12.633699 68.495028
-26.135697 12.145956 68.514940
-26.010221 11.481620 68.509847
-26.185893 10.910321 68.569320
-26.116501 10.094609 68.657914
-26.078781 9.567402 68.682409
-26.009664 8.795032 68.770682
-25.760351 8.242415 68.759537
-25.525237 7.575164 68.826624
-25.163817 6.860067 68.848587
-24.999815 6.291345 68.828132
-24.806590 5.565008 68.870296
-24.710317 4.931041 68.763663
-24.668311 4.340709 68.748994
-24.459091 3.663319 68.675933
-24.453074 3.156108 68.637514
-24.209796 2.521939 68.588879
-24.144481 1.821132 68.421449
-24.155868 1.161611 68.244448
-24.090591 0.655917 68.077252
-24.113927 -0.082022 67.976577
-24.007450 -0.586541 67.795627
-24.036044 -1.092383 67.479145
-24.164348 -1.837420 66.793781
-26.848489 15.235439 66.605715
-26.610783 14.526705 66.831516
-26.587054 14.001970 66.903105
-26.321782 13.391486 66.971689
-26.142913 12.702955 67.148003
-26.303711 12.115062 67.269853
-26.368288 11.608033 67.318788
-26.453587 11.035713 67.428125
-26.429905 10.477221 67.499553
-26.121597 9.805324 67.576708
-25.966887 9.265872 67.680474
-25.697689 8.640643 67.650407
-25.419230 8.054343 67.655748
-25.396090 7.470774 67.726030
-25.224976 6.802163 67.768935
-24.647943 6.197108 67.754346
-24.659313 5.656111 67.719624
-24.465341 5.096749 67.610171
-24.178794 4.501330 67.557293
-23.995489 3.885061 67.541676
-23.965668 3.314220 67.517963
-23.965668 2.879375 67.517963
-24.025343 2.112475 67.565414
-23.813283 1.670840 67.526152
-23.842948 1.104252 67.549811
-23.865248 0.536795 67.481265
-23.898713 0.002555 67.378403
-24.014123 -0.666302 67.253908
-24.017842 -1.234620 67.127317
-24.126058 -1.905477 66.910038
-28.354349 15.152407 65.709271
-27.774250 14.529855 65.753207
-27.559270 13.940948 65.732268
-27.175612 13.178579 65.694899
-27.102532 12.571819 65.885562
-27.110292 11.972166 66.018554
-27.102532 11.380720 65.885562
-27.175951 10.828970 66.058389
-27.183814 10.262089 66.191898
-27.195643 9.735855 66.392744
-27.064054 9.169201 66.312128
-26.863564 8.650942 66.489857
-26.359776 7.869725 66.434773
-26.027976 7.367112 66.398494
-25.784292 6.810442 66.437309
-25.438979 6.139583 66.431810
-25.196266 5.552462 66.404922
-24.915291 4.896225 66.373795
-24.618013 4.280377 66.373072
-24.441283 3.781040 66.385551
-24.343952 3.183365 66.406788
-24.246853 2.656808 66.427974
-24.125249 2.023567 66.286272
-24.008343 1.464953 66.273320
-24.071841 0.912228 66.440264
-23.952997 0.389735 66.362912
-23.856931 -0.199700 66.384026
-23.877282 -0.754351 66.418241
-23.568351 -1.337605 66.383272
-24.172701 -1.872969 66.547974
-28.684329 15.049490 64.305252
-28.549808 14.471656 64.166582
-28.384420 13.826983 64.090361
-28.000853 13.228773 64.125996
-27.845568 12.565057 64.114516
-27.705331 11.989255 64.231097
-27.772912 11.425066 64.491134
-27.801993 10.922223 64.749503
-27.590870 10.375664 64.924120
-27.567955 9.733733 64.890099
-27.497772 9.199258 64.948172
-27.181364 8.390465 65.016661
-26.943376 7.982055 65.091403
-26.631073 7.357752 65.158916
-26.097206 6.681208 65.205376
-25.859273 6.140561 65.215034
-25.785462 5.580954 65.208226
-25.570748 5.014599 65.251191
-25.357168 4.348114 65.293930
-25.051547 3.850132 65.296375
-24.892051 3.261240 65.312437
-24.620999 2.775954 65.473119
-24.585294 2.195582 65.469627
-24.412339 1.579259 65.514790
-24.351301 1.103672 65.632999
-24.260236 0.423213 65.592798
-24.053371 -0.085653 65.633987
-24.037252 -0.729823 65.880548
-23.971578 -1.170015 65.935810
-24.076462 -1.853773 66.165260
