ply
format ascii 1.0
element vertex 1469
property float x
property float y
property float z
element face 0
property list uchar int vertex_index
end_header
2.854020 151.000000 -140.981307
-6.214946 151.000000 -143.160055
-15.283911 151.000000 -144.765369
-24.352877 151.000000 -145.822493
-33.421842 151.000000 -146.347244
-42.490808 151.000000 -146.347244
-51.559773 151.000000 -145.822493
-60.628739 151.000000 -144.765369
-69.697704 151.000000 -143.160055
-78.766670 151.000000 -140.981307
-87.835635 151.000000 -138.192307
-96.904601 151.000000 -134.741141
-105.973566 151.000000 -130.555013
-115.042532 151.000000 -125.530414
-124.111497 151.000000 -119.515394
-133.180463 151.000000 -112.274730
-142.249428 151.000000 -103.412227
-151.318394 151.000000 -92.159669
-160.387359 151.000000 -76.555095
-164.921842 151.000000 -56.483878
-155.852877 151.000000 -84.357382
-146.783911 151.000000 -97.785948
-167.681597 166.000000 -38.232481
-163.198838 166.000000 -17.978799
-154.233321 166.000000 10.148101
-145.267804 166.000000 23.698744
-158.716080 166.000000 2.274884
-149.750562 166.000000 18.021318
-140.785045 166.000000 29.376171
-131.819528 166.000000 38.319243
-122.854011 166.000000 45.625731
-113.888493 166.000000 51.695433
-104.922976 166.000000 56.765710
-95.957459 166.000000 60.989894
-86.991942 166.000000 64.472434
-78.026424 166.000000 67.286788
-69.060907 166.000000 69.485343
-60.095390 166.000000 71.105250
-51.129873 166.000000 72.171985
-42.164355 166.000000 72.701506
-33.198838 166.000000 72.701506
-24.233321 166.000000 72.171985
-15.267804 166.000000 71.105250
-6.302287 166.000000 69.485343
2.663231 166.000000 67.286788
11.628748 166.000000 64.472434
20.594265 166.000000 60.989894
29.559782 166.000000 56.765710
38.525300 166.000000 51.695433
47.490817 166.000000 45.625731
56.456334 166.000000 38.319243
65.421851 166.000000 29.376171
74.387369 166.000000 18.021318
83.352886 166.000000 2.274884
87.835645 166.000000 -17.978799
78.870127 166.000000 10.148101
69.904610 166.000000 23.698744
92.318403 166.000000 -38.232481
87.835645 166.000000 -58.486164
78.870127 166.000000 -86.613063
69.904610 166.000000 -100.163707
83.352886 166.000000 -78.739846
74.387369 166.000000 -94.486280
65.421851 166.000000 -105.841133
56.456334 166.000000 -114.784205
47.490817 166.000000 -122.090694
38.525300 166.000000 -128.160395
29.559782 166.000000 -133.230673
20.594265 166.000000 -137.454856
11.628748 166.000000 -140.937397
2.663231 166.000000 -143.751751
-6.302287 166.000000 -145.950305
-15.267804 166.000000 -147.570213
-24.233321 166.000000 -148.636948
-33.198838 166.000000 -149.166469
-42.164355 166.000000 -149.166469
-51.129873 166.000000 -148.636948
-60.095390 166.000000 -147.570213
-69.060907 166.000000 -145.950305
-78.026424 166.000000 -143.751751
-86.991942 166.000000 -140.937397
-95.957459 166.000000 -137.454856
-104.922976 166.000000 -133.230673
-113.888493 166.000000 -128.160395
-122.854011 166.000000 -122.090694
-131.819528 166.000000 -114.784205
-140.785045 166.000000 -105.841133
-149.750562 166.000000 -94.486280
-158.716080 166.000000 -78.739846
-163.198838 166.000000 -58.486164
-154.233321 166.000000 -86.613063
-145.267804 166.000000 -100.163707
-163.906869 181.000000 -39.552301
-159.527558 181.000000 -19.207386
-150.768938 181.000000 9.046211
-142.010317 181.000000 22.657894
-155.148248 181.000000 1.137529
-146.389627 181.000000 16.954893
-137.631007 181.000000 28.360895
-128.872386 181.000000 37.344251
-120.113765 181.000000 44.683651
-111.355145 181.000000 50.780694
-102.596524 181.000000 55.873810
-93.837903 181.000000 60.117021
-85.079283 181.000000 63.615249
-76.320662 181.000000 66.442281
-67.562041 181.000000 68.650738
-58.803420 181.000000 70.277943
-50.044800 181.000000 71.349483
-41.286179 181.000000 71.881389
-32.527558 181.000000 71.881389
-23.768938 181.000000 71.349483
-15.010317 181.000000 70.277943
-6.251696 181.000000 68.650738
2.506924 181.000000 66.442281
11.265545 181.000000 63.615249
20.024166 181.000000 60.117021
28.782786 181.000000 55.873810
37.541407 181.000000 50.780694
46.300028 181.000000 44.683651
55.058648 181.000000 37.344251
63.817269 181.000000 28.360895
72.575890 181.000000 16.954893
81.334511 181.000000 1.137529
85.713821 181.000000 -19.207386
76.955200 181.000000 9.046211
68.196580 181.000000 22.657894
90.093131 181.000000 -39.552301
85.713821 181.000000 -59.897216
76.955200 181.000000 -88.150814
68.196580 181.000000 -101.762496
81.334511 181.000000 -80.242132
72.575890 181.000000 -96.059496
63.817269 181.000000 -107.465497
55.058648 181.000000 -116.448853
46.300028 181.000000 -123.788253
37.541407 181.000000 -129.885296
28.782786 181.000000 -134.978412
20.024166 181.000000 -139.221624
11.265545 181.000000 -142.719851
2.506924 181.000000 -145.546883
-6.251696 181.000000 -147.755341
-15.010317 181.000000 -149.382545
-23.768938 181.000000 -150.454085
-32.527558 181.000000 -150.985991
-41.286179 181.000000 -150.985991
-50.044800 181.000000 -150.454085
-58.803420 181.000000 -149.382545
-67.562041 181.000000 -147.755341
-76.320662 181.000000 -145.546883
-85.079283 181.000000 -142.719851
-93.837903 181.000000 -139.221624
-102.596524 181.000000 -134.978412
-111.355145 181.000000 -129.885296
-120.113765 181.000000 -123.788253
-128.872386 181.000000 -116.448853
-137.631007 181.000000 -107.465497
-146.389627 181.000000 -96.059496
-155.148248 181.000000 -80.242132
-159.527558 181.000000 -59.897216
-150.768938 181.000000 -88.150814
-142.010317 181.000000 -101.762496
-159.132141 196.000000 -40.372121
-154.908003 196.000000 -20.209671
-146.459727 196.000000 7.790530
-138.011451 196.000000 21.280135
-150.683865 196.000000 -0.047222
-142.235589 196.000000 15.628282
-133.787313 196.000000 26.931988
-125.339037 196.000000 35.834776
-116.890761 196.000000 43.108352
-108.442485 196.000000 49.150712
-99.994210 196.000000 54.198151
-91.545934 196.000000 58.403306
-83.097658 196.000000 61.870160
-74.649382 196.000000 64.671837
-66.201106 196.000000 66.860488
-57.752830 196.000000 68.473099
-49.304554 196.000000 69.535028
-40.856279 196.000000 70.062164
-32.408003 196.000000 70.062164
-23.959727 196.000000 69.535028
-15.511451 196.000000 68.473099
-7.063175 196.000000 66.860488
1.385101 196.000000 64.671837
9.833377 196.000000 61.870160
18.281652 196.000000 58.403306
26.729928 196.000000 54.198151
35.178204 196.000000 49.150712
43.626480 196.000000 43.108352
52.074756 196.000000 35.834776
60.523032 196.000000 26.931988
68.971308 196.000000 15.628282
77.419583 196.000000 -0.047222
81.643721 196.000000 -20.209671
73.195446 196.000000 7.790530
64.747170 196.000000 21.280135
85.867859 196.000000 -40.372121
81.643721 196.000000 -60.534571
73.195446 196.000000 -88.534772
64.747170 196.000000 -102.024377
77.419583 196.000000 -80.697020
68.971308 196.000000 -96.372524
60.523032 196.000000 -107.676230
52.074756 196.000000 -116.579017
43.626480 196.000000 -123.852594
35.178204 196.000000 -129.894954
26.729928 196.000000 -134.942393
18.281652 196.000000 -139.147548
9.833377 196.000000 -142.614402
1.385101 196.000000 -145.416079
-7.063175 196.000000 -147.604730
-15.511451 196.000000 -149.217340
-23.959727 196.000000 -150.279270
-32.408003 196.000000 -150.806406
-40.856279 196.000000 -150.806406
-49.304554 196.000000 -150.279270
-57.752830 196.000000 -149.217340
-66.201106 196.000000 -147.604730
-74.649382 196.000000 -145.416079
-83.097658 196.000000 -142.614402
-91.545934 196.000000 -139.147548
-99.994210 196.000000 -134.942393
-108.442485 196.000000 -129.894954
-116.890761 196.000000 -123.852594
-125.339037 196.000000 -116.579017
-133.787313 196.000000 -107.676230
-142.235589 196.000000 -96.372524
-150.683865 196.000000 -80.697020
-154.908003 196.000000 -60.534571
-146.459727 196.000000 -88.534772
-138.011451 196.000000 -102.024377
-155.357413 211.000000 -40.691941
-151.288447 211.000000 -20.438258
-143.150516 211.000000 7.688641
-135.012585 211.000000 21.239285
-147.219481 211.000000 -0.184576
-139.081550 211.000000 15.561858
-130.943619 211.000000 26.916711
-122.805688 211.000000 35.859783
-114.667757 211.000000 43.166271
-106.529826 211.000000 49.235973
-98.391895 211.000000 54.306251
-90.253964 211.000000 58.530434
-82.116033 211.000000 62.012975
-73.978102 211.000000 64.827329
-65.840171 211.000000 67.025883
-57.702240 211.000000 68.645791
-49.564309 211.000000 69.712526
-41.426378 211.000000 70.242047
-33.288447 211.000000 70.242047
-25.150516 211.000000 69.712526
-17.012585 211.000000 68.645791
-8.874654 211.000000 67.025883
-0.736723 211.000000 64.827329
7.401208 211.000000 62.012975
15.539139 211.000000 58.530434
23.677070 211.000000 54.306251
31.815001 211.000000 49.235973
39.952932 211.000000 43.166271
48.090863 211.000000 35.859783
56.228794 211.000000 26.916711
64.366725 211.000000 15.561858
72.504656 211.000000 -0.184576
76.573622 211.000000 -20.438258
68.435691 211.000000 7.688641
60.297760 211.000000 21.239285
80.642587 211.000000 -40.691941
76.573622 211.000000 -60.945623
68.435691 211.000000 -89.072523
60.297760 211.000000 -102.623166
72.504656 211.000000 -81.199306
64.366725 211.000000 -96.945740
56.228794 211.000000 -108.300593
48.090863 211.000000 -117.243665
39.952932 211.000000 -124.550153
31.815001 211.000000 -130.619855
23.677070 211.000000 -135.690132
15.539139 211.000000 -139.914316
7.401208 211.000000 -143.396856
-0.736723 211.000000 -146.211211
-8.874654 211.000000 -148.409765
-17.012585 211.000000 -150.029673
-25.150516 211.000000 -151.096407
-33.288447 211.000000 -151.625928
-41.426378 211.000000 -151.625928
-49.564309 211.000000 -151.096407
-57.702240 211.000000 -150.029673
-65.840171 211.000000 -148.409765
-73.978102 211.000000 -146.211211
-82.116033 211.000000 -143.396856
-90.253964 211.000000 -139.914316
-98.391895 211.000000 -135.690132
-106.529826 211.000000 -130.619855
-114.667757 211.000000 -124.550153
-122.805688 211.000000 -117.243665
-130.943619 211.000000 -108.300593
-139.081550 211.000000 -96.945740
-147.219481 211.000000 -81.199306
-151.288447 211.000000 -60.945623
-143.150516 211.000000 -89.072523
-135.012585 211.000000 -102.623166
-150.582684 226.000000 -40.511761
-146.703374 226.000000 -20.258078
-138.944753 226.000000 7.868821
-131.186133 226.000000 21.419465
-142.824064 226.000000 -0.004396
-135.065443 226.000000 15.742038
-127.306822 226.000000 27.096892
-119.548202 226.000000 36.039964
-111.789581 226.000000 43.346452
-104.030960 226.000000 49.416153
-96.272340 226.000000 54.486431
-88.513719 226.000000 58.710614
-80.755098 226.000000 62.193155
-72.996478 226.000000 65.007509
-65.237857 226.000000 67.206063
-57.479236 226.000000 68.825971
-49.720615 226.000000 69.892706
-41.961995 226.000000 70.422227
-34.203374 226.000000 70.422227
-26.444753 226.000000 69.892706
-18.686133 226.000000 68.825971
-10.927512 226.000000 67.206063
-3.168891 226.000000 65.007509
4.589729 226.000000 62.193155
12.348350 226.000000 58.710614
20.106971 226.000000 54.486431
27.865591 226.000000 49.416153
35.624212 226.000000 43.346452
43.382833 226.000000 36.039964
51.141454 226.000000 27.096892
58.900074 226.000000 15.742038
66.658695 226.000000 -0.004396
70.538005 226.000000 -20.258078
62.779385 226.000000 7.868821
55.020764 226.000000 21.419465
74.417316 226.000000 -40.511761
70.538005 226.000000 -60.765443
62.779385 226.000000 -88.892342
55.020764 226.000000 -102.442986
66.658695 226.000000 -81.019125
58.900074 226.000000 -96.765560
51.141454 226.000000 -108.120413
43.382833 226.000000 -117.063485
35.624212 226.000000 -124.369973
27.865591 226.000000 -130.439675
20.106971 226.000000 -135.509952
12.348350 226.000000 -139.734135
4.589729 226.000000 -143.216676
-3.168891 226.000000 -146.031030
-10.927512 226.000000 -148.229585
-18.686133 226.000000 -149.849492
-26.444753 226.000000 -150.916227
-34.203374 226.000000 -151.445748
-41.961995 226.000000 -151.445748
-49.720615 226.000000 -150.916227
-57.479236 226.000000 -149.849492
-65.237857 226.000000 -148.229585
-72.996478 226.000000 -146.031030
-80.755098 226.000000 -143.216676
-88.513719 226.000000 -139.734135
-96.272340 226.000000 -135.509952
-104.030960 226.000000 -130.439675
-111.789581 226.000000 -124.369973
-119.548202 226.000000 -117.063485
-127.306822 226.000000 -108.120413
-135.065443 226.000000 -96.765560
-142.824064 226.000000 -81.019125
-146.703374 226.000000 -60.765443
-138.944753 226.000000 -88.892342
-131.186133 226.000000 -102.442986
-142.807956 241.000000 -39.331580
-139.170025 241.000000 -19.260364
-131.894163 241.000000 8.613140
-124.618301 241.000000 22.041706
-135.532094 241.000000 0.810853
-128.256232 241.000000 16.415428
-120.980370 241.000000 27.667985
-113.704508 241.000000 36.530489
-106.428646 241.000000 43.771152
-99.152784 241.000000 49.786172
-91.876922 241.000000 54.810771
-84.601060 241.000000 58.996899
-77.325198 241.000000 62.448065
-70.049336 241.000000 65.237065
-62.773474 241.000000 67.415813
-55.497611 241.000000 69.021127
-48.221749 241.000000 70.078251
-40.945887 241.000000 70.603002
-33.670025 241.000000 70.603002
-26.394163 241.000000 70.078251
-19.118301 241.000000 69.021127
-11.842439 241.000000 67.415813
-4.566577 241.000000 65.237065
2.709285 241.000000 62.448065
9.985147 241.000000 58.996899
17.261009 241.000000 54.810771
24.536871 241.000000 49.786172
31.812733 241.000000 43.771152
39.088595 241.000000 36.530489
46.364458 241.000000 27.667985
53.640320 241.000000 16.415428
60.916182 241.000000 0.810853
64.554113 241.000000 -19.260364
57.278251 241.000000 8.613140
50.002389 241.000000 22.041706
68.192044 241.000000 -39.331580
64.554113 241.000000 -59.402797
57.278251 241.000000 -87.276301
50.002389 241.000000 -100.704867
60.916182 241.000000 -79.474014
53.640320 241.000000 -95.078588
46.364458 241.000000 -106.331146
39.088595 241.000000 -115.193649
31.812733 241.000000 -122.434313
24.536871 241.000000 -128.449333
17.261009 241.000000 -133.473932
9.985147 241.000000 -137.660060
2.709285 241.000000 -141.111226
-4.566577 241.000000 -143.900226
-11.842439 241.000000 -146.078974
-19.118301 241.000000 -147.684288
-26.394163 241.000000 -148.741412
-33.670025 241.000000 -149.266163
-40.945887 241.000000 -149.266163
-48.221749 241.000000 -148.741412
-55.497611 241.000000 -147.684288
-62.773474 241.000000 -146.078974
-70.049336 241.000000 -143.900226
-77.325198 241.000000 -141.111226
-84.601060 241.000000 -137.660060
-91.876922 241.000000 -133.473932
-99.152784 241.000000 -128.449333
-106.428646 241.000000 -122.434313
-113.704508 241.000000 -115.193649
-120.980370 241.000000 -106.331146
-128.256232 241.000000 -95.078588
-135.532094 241.000000 -79.474014
-139.170025 241.000000 -59.402797
-131.894163 241.000000 -87.276301
-124.618301 241.000000 -100.704867
-137.033228 256.000000 -37.651400
-133.602194 256.000000 -17.853882
-126.740125 256.000000 9.639529
-119.878056 256.000000 22.884978
-130.171159 256.000000 1.943637
-123.309090 256.000000 17.335421
-116.447021 256.000000 28.434535
-109.584952 256.000000 37.176186
-102.722883 256.000000 44.318114
-95.860814 256.000000 50.251110
-88.998745 256.000000 55.207192
-82.136676 256.000000 59.336236
-75.274607 256.000000 62.740341
-68.412539 256.000000 65.491309
-61.550470 256.000000 67.640347
-54.688401 256.000000 69.223770
-47.826332 256.000000 70.266479
-40.964263 256.000000 70.784074
-34.102194 256.000000 70.784074
-27.240125 256.000000 70.266479
-20.378056 256.000000 69.223770
-13.515987 256.000000 67.640347
-6.653918 256.000000 65.491309
0.208151 256.000000 62.740341
7.070220 256.000000 59.336236
13.932289 256.000000 55.207192
20.794358 256.000000 50.251110
27.656427 256.000000 44.318114
34.518496 256.000000 37.176186
41.380565 256.000000 28.434535
48.242634 256.000000 17.335421
55.104703 256.000000 1.943637
58.535737 256.000000 -17.853882
51.673668 256.000000 9.639529
44.811599 256.000000 22.884978
61.966772 256.000000 -37.651400
58.535737 256.000000 -57.448919
51.673668 256.000000 -84.942329
44.811599 256.000000 -98.187778
55.104703 256.000000 -77.246437
48.242634 256.000000 -92.638222
41.380565 256.000000 -103.737335
34.518496 256.000000 -112.478986
27.656427 256.000000 -119.620914
20.794358 256.000000 -125.553911
13.932289 256.000000 -130.509993
7.070220 256.000000 -134.639037
0.208151 256.000000 -138.043142
-6.653918 256.000000 -140.794110
-13.515987 256.000000 -142.943147
-20.378056 256.000000 -144.526570
-27.240125 256.000000 -145.569280
-34.102194 256.000000 -146.086874
-40.964263 256.000000 -146.086874
-47.826332 256.000000 -145.569280
-54.688401 256.000000 -144.526570
-61.550470 256.000000 -142.943147
-68.412539 256.000000 -140.794110
-75.274607 256.000000 -138.043142
-82.136676 256.000000 -134.639037
-88.998745 256.000000 -130.509993
-95.860814 256.000000 -125.553911
-102.722883 256.000000 -119.620914
-109.584952 256.000000 -112.478986
-116.447021 256.000000 -103.737335
-123.309090 256.000000 -92.638222
-130.171159 256.000000 -77.246437
-133.602194 256.000000 -57.448919
-126.740125 256.000000 -84.942329
-119.878056 256.000000 -98.187778
-133.258500 271.000000 -35.971220
-129.896431 271.000000 -16.812331
-123.172293 271.000000 9.794195
-116.448155 271.000000 22.612372
-126.534362 271.000000 2.346558
-119.810224 271.000000 17.241833
-113.086086 271.000000 27.982910
-106.361948 271.000000 36.442573
-99.637810 271.000000 43.354116
-92.913672 271.000000 49.095726
-86.189535 271.000000 53.891934
-79.465397 271.000000 57.887783
-72.741259 271.000000 61.182078
-66.017121 271.000000 63.844305
-59.292983 271.000000 65.924019
-52.568845 271.000000 67.456364
-45.844707 271.000000 68.465438
-39.120569 271.000000 68.966336
-32.396431 271.000000 68.966336
-25.672293 271.000000 68.465438
-18.948155 271.000000 67.456364
-12.224017 271.000000 65.924019
-5.499879 271.000000 63.844305
1.224259 271.000000 61.182078
7.948397 271.000000 57.887783
14.672534 271.000000 53.891934
21.396672 271.000000 49.095726
28.120810 271.000000 43.354116
34.844948 271.000000 36.442573
41.569086 271.000000 27.982910
48.293224 271.000000 17.241833
55.017362 271.000000 2.346558
58.379431 271.000000 -16.812331
51.655293 271.000000 9.794195
44.931155 271.000000 22.612372
61.741500 271.000000 -35.971220
58.379431 271.000000 -55.130109
51.655293 271.000000 -81.736635
44.931155 271.000000 -94.554812
55.017362 271.000000 -74.288998
48.293224 271.000000 -89.184273
41.569086 271.000000 -99.925350
34.844948 271.000000 -108.385013
28.120810 271.000000 -115.296556
21.396672 271.000000 -121.038166
14.672534 271.000000 -125.834374
7.948397 271.000000 -129.830223
1.224259 271.000000 -133.124518
-5.499879 271.000000 -135.786745
-12.224017 271.000000 -137.866459
-18.948155 271.000000 -139.398804
-25.672293 271.000000 -140.407878
-32.396431 271.000000 -140.908776
-39.120569 271.000000 -140.908776
-45.844707 271.000000 -140.407878
-52.568845 271.000000 -139.398804
-59.292983 271.000000 -137.866459
-66.017121 271.000000 -135.786745
-72.741259 271.000000 -133.124518
-79.465397 271.000000 -129.830223
-86.189535 271.000000 -125.834374
-92.913672 271.000000 -121.038166
-99.637810 271.000000 -115.296556
-106.361948 271.000000 -108.385013
-113.086086 271.000000 -99.925350
-119.810224 271.000000 -89.184273
-126.534362 271.000000 -74.288998
-129.896431 271.000000 -55.130109
-123.172293 271.000000 -81.736635
-116.448155 271.000000 -94.554812
-131.483772 286.000000 -33.291040
-128.138944 286.000000 -15.318178
-121.449289 286.000000 9.641278
-114.759634 286.000000 21.665949
-124.794117 286.000000 2.654685
-118.104462 286.000000 16.627872
-111.414806 286.000000 26.704025
-104.725151 286.000000 34.639995
-98.035496 286.000000 41.123680
-91.345841 286.000000 46.509857
-84.656186 286.000000 51.009157
-77.966531 286.000000 54.757644
-71.276875 286.000000 57.848007
-64.587220 286.000000 60.345429
-57.897565 286.000000 62.296399
-51.207910 286.000000 63.733884
-44.518255 286.000000 64.680491
-37.828600 286.000000 65.150381
-31.138944 286.000000 65.150381
-24.449289 286.000000 64.680491
-17.759634 286.000000 63.733884
-11.069979 286.000000 62.296399
-4.380324 286.000000 60.345429
2.309332 286.000000 57.848007
8.998987 286.000000 54.757644
15.688642 286.000000 51.009157
22.378297 286.000000 46.509857
29.067952 286.000000 41.123680
35.757607 286.000000 34.639995
42.447263 286.000000 26.704025
49.136918 286.000000 16.627872
55.826573 286.000000 2.654685
59.171400 286.000000 -15.318178
52.481745 286.000000 9.641278
45.792090 286.000000 21.665949
62.516228 286.000000 -33.291040
59.171400 286.000000 -51.263902
52.481745 286.000000 -76.223358
45.792090 286.000000 -88.248028
55.826573 286.000000 -69.236765
49.136918 286.000000 -83.209952
42.447263 286.000000 -93.286105
35.757607 286.000000 -101.222074
29.067952 286.000000 -107.705760
22.378297 286.000000 -113.091937
15.688642 286.000000 -117.591237
8.998987 286.000000 -121.339724
2.309332 286.000000 -124.430086
-4.380324 286.000000 -126.927509
-11.069979 286.000000 -128.878478
-17.759634 286.000000 -130.315964
-24.449289 286.000000 -131.262571
-31.138944 286.000000 -131.732461
-37.828600 286.000000 -131.732461
-44.518255 286.000000 -131.262571
-51.207910 286.000000 -130.315964
-57.897565 286.000000 -128.878478
-64.587220 286.000000 -126.927509
-71.276875 286.000000 -124.430086
-77.966531 286.000000 -121.339724
-84.656186 286.000000 -117.591237
-91.345841 286.000000 -113.091937
-98.035496 286.000000 -107.705760
-104.725151 286.000000 -101.222074
-111.414806 286.000000 -93.286105
-118.104462 286.000000 -83.209952
-124.794117 286.000000 -69.236765
-128.138944 286.000000 -51.263902
-121.449289 286.000000 -76.223358
-114.759634 286.000000 -88.248028
-128.709044 301.000000 -33.110860
-125.415940 301.000000 -16.232791
-118.829733 301.000000 7.206292
-112.243527 301.000000 18.498495
-122.122837 301.000000 0.645278
-115.536630 301.000000 13.767306
-108.950423 301.000000 23.229684
-102.364216 301.000000 30.682244
-95.778009 301.000000 36.770984
-89.191802 301.000000 41.829069
-82.605596 301.000000 46.054300
-76.019389 301.000000 49.574453
-69.433182 301.000000 52.476570
-62.846975 301.000000 54.821865
-56.260768 301.000000 56.653994
-49.674561 301.000000 58.003917
-43.088354 301.000000 58.892863
-36.502147 301.000000 59.334130
-29.915940 301.000000 59.334130
-23.329733 301.000000 58.892863
-16.743527 301.000000 58.003917
-10.157320 301.000000 56.653994
-3.571113 301.000000 54.821865
3.015094 301.000000 52.476570
9.601301 301.000000 49.574453
16.187508 301.000000 46.054300
22.773715 301.000000 41.829069
29.359922 301.000000 36.770984
35.946129 301.000000 30.682244
42.532336 301.000000 23.229684
49.118542 301.000000 13.767306
55.704749 301.000000 0.645278
58.997853 301.000000 -16.232791
52.411646 301.000000 7.206292
45.825439 301.000000 18.498495
62.290956 301.000000 -33.110860
58.997853 301.000000 -49.988928
52.411646 301.000000 -73.428011
45.825439 301.000000 -84.720214
55.704749 301.000000 -66.866997
49.118542 301.000000 -79.989025
42.532336 301.000000 -89.451403
35.946129 301.000000 -96.903963
29.359922 301.000000 -102.992703
22.773715 301.000000 -108.050788
16.187508 301.000000 -112.276019
9.601301 301.000000 -115.796172
3.015094 301.000000 -118.698289
-3.571113 301.000000 -121.043584
-10.157320 301.000000 -122.875713
-16.743527 301.000000 -124.225636
-23.329733 301.000000 -125.114582
-29.915940 301.000000 -125.555849
-36.502147 301.000000 -125.555849
-43.088354 301.000000 -125.114582
-49.674561 301.000000 -124.225636
-56.260768 301.000000 -122.875713
-62.846975 301.000000 -121.043584
-69.433182 301.000000 -118.698289
-76.019389 301.000000 -115.796172
-82.605596 301.000000 -112.276019
-89.191802 301.000000 -108.050788
-95.778009 301.000000 -102.992703
-102.364216 301.000000 -96.903963
-108.950423 301.000000 -89.451403
-115.536630 301.000000 -79.989025
-122.122837 301.000000 -66.866997
-125.415940 301.000000 -49.988928
-118.829733 301.000000 -73.428011
-112.243527 301.000000 -84.720214
-128.934316 316.000000 -32.430680
-125.641212 316.000000 -16.008775
-119.055005 316.000000 6.796819
-112.468798 316.000000 17.783828
-122.348109 316.000000 0.413130
-115.761902 316.000000 13.180509
-109.175695 316.000000 22.387147
-102.589488 316.000000 29.638286
-96.003281 316.000000 35.562466
-89.417074 316.000000 40.483845
-82.830867 316.000000 44.594881
-76.244661 316.000000 48.019895
-69.658454 316.000000 50.843576
-63.072247 316.000000 53.125485
-56.486040 316.000000 54.908097
-49.899833 316.000000 56.221535
-43.313626 316.000000 57.086456
-36.727419 316.000000 57.515797
-30.141212 316.000000 57.515797
-23.555005 316.000000 57.086456
-16.968798 316.000000 56.221535
-10.382592 316.000000 54.908097
-3.796385 316.000000 53.125485
2.789822 316.000000 50.843576
9.376029 316.000000 48.019895
15.962236 316.000000 44.594881
22.548443 316.000000 40.483845
29.134650 316.000000 35.562466
35.720857 316.000000 29.638286
42.307064 316.000000 22.387147
48.893271 316.000000 13.180509
55.479477 316.000000 0.413130
58.772581 316.000000 -16.008775
52.186374 316.000000 6.796819
45.600167 316.000000 17.783828
62.065684 316.000000 -32.430680
58.772581 316.000000 -48.852584
52.186374 316.000000 -71.658178
45.600167 316.000000 -82.645187
55.479477 316.000000 -65.274489
48.893271 316.000000 -78.041868
42.307064 316.000000 -87.248506
35.720857 316.000000 -94.499645
29.134650 316.000000 -100.423825
22.548443 316.000000 -105.345204
15.962236 316.000000 -109.456240
9.376029 316.000000 -112.881254
2.789822 316.000000 -115.704935
-3.796385 316.000000 -117.986844
-10.382592 316.000000 -119.769456
-16.968798 316.000000 -121.082894
-23.555005 316.000000 -121.947815
-30.141212 316.000000 -122.377156
-36.727419 316.000000 -122.377156
-43.313626 316.000000 -121.947815
-49.899833 316.000000 -121.082894
-56.486040 316.000000 -119.769456
-63.072247 316.000000 -117.986844
-69.658454 316.000000 -115.704935
-76.244661 316.000000 -112.881254
-82.830867 316.000000 -109.456240
-89.417074 316.000000 -105.345204
-96.003281 316.000000 -100.423825
-102.589488 316.000000 -94.499645
-109.175695 316.000000 -87.248506
-115.761902 316.000000 -78.041868
-122.348109 316.000000 -65.274489
-125.641212 316.000000 -48.852584
-119.055005 316.000000 -71.658178
-112.468798 316.000000 -82.645187
-127.159588 331.000000 -32.250499
-123.900967 331.000000 -15.646129
-117.383725 331.000000 7.412861
-110.866484 331.000000 18.521947
-120.642346 331.000000 0.958241
-114.125105 331.000000 13.867480
-107.607863 331.000000 23.176414
-101.090622 331.000000 30.508121
-94.573381 331.000000 36.498125
-88.056139 331.000000 41.474187
-81.538898 331.000000 45.630901
-75.021657 331.000000 49.093970
-68.504415 331.000000 51.949026
-61.987174 331.000000 54.256289
-55.469932 331.000000 56.058708
-48.952691 331.000000 57.386740
-42.435450 331.000000 58.261271
-35.918208 331.000000 58.695382
-29.400967 331.000000 58.695382
-22.883725 331.000000 58.261271
-16.366484 331.000000 57.386740
-9.849243 331.000000 56.058708
-3.332001 331.000000 54.256289
3.185240 331.000000 51.949026
9.702481 331.000000 49.093970
16.219723 331.000000 45.630901
22.736964 331.000000 41.474187
29.254206 331.000000 36.498125
35.771447 331.000000 30.508121
42.288688 331.000000 23.176414
48.805930 331.000000 13.867480
55.323171 331.000000 0.958241
58.581792 331.000000 -15.646129
52.064550 331.000000 7.412861
45.547309 331.000000 18.521947
61.840412 331.000000 -32.250499
58.581792 331.000000 -48.854870
52.064550 331.000000 -71.913859
45.547309 331.000000 -83.022945
55.323171 331.000000 -65.459240
48.805930 331.000000 -78.368479
42.288688 331.000000 -87.677412
35.771447 331.000000 -95.009120
29.254206 331.000000 -100.999124
22.736964 331.000000 -105.975186
16.219723 331.000000 -110.131899
9.702481 331.000000 -113.594969
3.185240 331.000000 -116.450025
-3.332001 331.000000 -118.757288
-9.849243 331.000000 -120.559706
-16.366484 331.000000 -121.887739
-22.883725 331.000000 -122.762269
-29.400967 331.000000 -123.196381
-35.918208 331.000000 -123.196381
-42.435450 331.000000 -122.762269
-48.952691 331.000000 -121.887739
-55.469932 331.000000 -120.559706
-61.987174 331.000000 -118.757288
-68.504415 331.000000 -116.450025
-75.021657 331.000000 -113.594969
-81.538898 331.000000 -110.131899
-88.056139 331.000000 -105.975186
-94.573381 331.000000 -100.999124
-101.090622 331.000000 -95.009120
-107.607863 331.000000 -87.677412
-114.125105 331.000000 -78.368479
-120.642346 331.000000 -65.459240
-123.900967 331.000000 -48.854870
-117.383725 331.000000 -71.913859
-110.866484 331.000000 -83.022945
-125.384859 346.000000 -31.570319
-122.177963 346.000000 -15.057182
-115.764170 346.000000 7.875110
-109.350377 346.000000 18.923158
-118.971066 346.000000 1.455956
-112.557273 346.000000 14.294265
-106.143480 346.000000 23.552050
-99.729687 346.000000 30.843474
-93.315894 346.000000 36.800566
-86.902101 346.000000 41.749286
-80.488308 346.000000 45.883161
-74.074515 346.000000 49.327203
-67.660722 346.000000 52.166571
-61.246928 346.000000 54.461158
-54.833135 346.000000 56.253672
-48.419342 346.000000 57.574408
-42.005549 346.000000 58.444133
-35.591756 346.000000 58.875860
-29.177963 346.000000 58.875860
-22.764170 346.000000 58.444133
-16.350377 346.000000 57.574408
-9.936584 346.000000 56.253672
-3.522790 346.000000 54.461158
2.891003 346.000000 52.166571
9.304796 346.000000 49.327203
15.718589 346.000000 45.883161
22.132382 346.000000 41.749286
28.546175 346.000000 36.800566
34.959968 346.000000 30.843474
41.373761 346.000000 23.552050
47.787554 346.000000 14.294265
54.201347 346.000000 1.455956
57.408244 346.000000 -15.057182
50.994451 346.000000 7.875110
44.580658 346.000000 18.923158
60.615141 346.000000 -31.570319
57.408244 346.000000 -48.083457
50.994451 346.000000 -71.015749
44.580658 346.000000 -82.063796
54.201347 346.000000 -64.596594
47.787554 346.000000 -77.434903
41.373761 346.000000 -86.692689
34.959968 346.000000 -93.984112
28.546175 346.000000 -99.941204
22.132382 346.000000 -104.889925
15.718589 346.000000 -109.023799
9.304796 346.000000 -112.467841
2.891003 346.000000 -115.307210
-3.522790 346.000000 -117.601796
-9.936584 346.000000 -119.394311
-16.350377 346.000000 -120.715046
-22.764170 346.000000 -121.584772
-29.177963 346.000000 -122.016498
-35.591756 346.000000 -122.016498
-42.005549 346.000000 -121.584772
-48.419342 346.000000 -120.715046
-54.833135 346.000000 -119.394311
-61.246928 346.000000 -117.601796
-67.660722 346.000000 -115.307210
-74.074515 346.000000 -112.467841
-80.488308 346.000000 -109.023799
-86.902101 346.000000 -104.889925
-93.315894 346.000000 -99.941204
-99.729687 346.000000 -93.984112
-106.143480 346.000000 -86.692689
-112.557273 346.000000 -77.434903
-118.971066 346.000000 -64.596594
-122.177963 346.000000 -48.083457
-115.764170 346.000000 -71.015749
-109.350377 346.000000 -82.063796
-123.610131 361.000000 -29.890139
-120.420476 361.000000 -13.468234
-114.041166 361.000000 9.337360
-107.661855 361.000000 20.324368
-117.230821 361.000000 2.953670
-110.851511 361.000000 15.721049
-104.472200 361.000000 24.927687
-98.092890 361.000000 32.178827
-91.713580 361.000000 38.103006
-85.334269 361.000000 43.024386
-78.954959 361.000000 47.135422
-72.575649 361.000000 50.560435
-66.196338 361.000000 53.384117
-59.817028 361.000000 55.666026
-53.437718 361.000000 57.448637
-47.058407 361.000000 58.762076
-40.679097 361.000000 59.626996
-34.299786 361.000000 60.056337
-27.920476 361.000000 60.056337
-21.541166 361.000000 59.626996
-15.161855 361.000000 58.762076
-8.782545 361.000000 57.448637
-2.403235 361.000000 55.666026
3.976076 361.000000 53.384117
10.355386 361.000000 50.560435
16.734696 361.000000 47.135422
23.114007 361.000000 43.024386
29.493317 361.000000 38.103006
35.872627 361.000000 32.178827
42.251938 361.000000 24.927687
48.631248 361.000000 15.721049
55.010558 361.000000 2.953670
58.200214 361.000000 -13.468234
51.820903 361.000000 9.337360
45.441593 361.000000 20.324368
61.389869 361.000000 -29.890139
58.200214 361.000000 -46.312044
51.820903 361.000000 -69.117638
45.441593 361.000000 -80.104646
55.010558 361.000000 -62.733948
48.631248 361.000000 -75.501327
42.251938 361.000000 -84.707965
35.872627 361.000000 -91.959104
29.493317 361.000000 -97.883284
23.114007 361.000000 -102.804664
16.734696 361.000000 -106.915700
10.355386 361.000000 -110.340713
3.976076 361.000000 -113.164395
-2.403235 361.000000 -115.446304
-8.782545 361.000000 -117.228915
-15.161855 361.000000 -118.542354
-21.541166 361.000000 -119.407274
-27.920476 361.000000 -119.836615
-34.299786 361.000000 -119.836615
-40.679097 361.000000 -119.407274
-47.058407 361.000000 -118.542354
-53.437718 361.000000 -117.228915
-59.817028 361.000000 -115.446304
-66.196338 361.000000 -113.164395
-72.575649 361.000000 -110.340713
-78.954959 361.000000 -106.915700
-85.334269 361.000000 -102.804664
-91.713580 361.000000 -97.883284
-98.092890 361.000000 -91.959104
-104.472200 361.000000 -84.707965
-110.851511 361.000000 -75.501327
-117.230821 361.000000 -62.733948
-120.420476 361.000000 -46.312044
-114.041166 361.000000 -69.117638
-107.661855 361.000000 -80.104646
-120.835403 376.000000 -28.209959
-117.680231 376.000000 -12.061753
-111.369886 376.000000 10.363748
-105.059541 376.000000 21.167640
-114.525058 376.000000 4.086454
-108.214714 376.000000 16.641043
-101.904369 376.000000 25.694237
-95.594024 376.000000 32.824524
-89.283679 376.000000 38.649967
-82.973334 376.000000 43.489324
-76.662989 376.000000 47.531842
-70.352645 376.000000 50.899773
-64.042300 376.000000 53.676393
-57.731955 376.000000 55.920270
-51.421610 376.000000 57.673171
-45.111265 376.000000 58.964719
-38.800920 376.000000 59.815224
-32.490576 376.000000 60.237410
-26.180231 376.000000 60.237410
-19.869886 376.000000 59.815224
-13.559541 376.000000 58.964719
-7.249196 376.000000 57.673171
-0.938851 376.000000 55.920270
5.371493 376.000000 53.676393
11.681838 376.000000 50.899773
17.992183 376.000000 47.531842
24.302528 376.000000 43.489324
30.612873 376.000000 38.649967
36.923217 376.000000 32.824524
43.233562 376.000000 25.694237
49.543907 376.000000 16.641043
55.854252 376.000000 4.086454
59.009424 376.000000 -12.061753
52.699080 376.000000 10.363748
46.388735 376.000000 21.167640
62.164597 376.000000 -28.209959
59.009424 376.000000 -44.358165
52.699080 376.000000 -66.783666
46.388735 376.000000 -77.587558
55.854252 376.000000 -60.506371
49.543907 376.000000 -73.060961
43.233562 376.000000 -82.114154
36.923217 376.000000 -89.244442
30.612873 376.000000 -95.069885
24.302528 376.000000 -99.909242
17.992183 376.000000 -103.951760
11.681838 376.000000 -107.319690
5.371493 376.000000 -110.096310
-0.938851 376.000000 -112.340187
-7.249196 376.000000 -114.093089
-13.559541 376.000000 -115.384637
-19.869886 376.000000 -116.235142
-26.180231 376.000000 -116.657327
-32.490576 376.000000 -116.657327
-38.800920 376.000000 -116.235142
-45.111265 376.000000 -115.384637
-51.421610 376.000000 -114.093089
-57.731955 376.000000 -112.340187
-64.042300 376.000000 -110.096310
-70.352645 376.000000 -107.319690
-76.662989 376.000000 -103.951760
-82.973334 376.000000 -99.909242
-89.283679 376.000000 -95.069885
-95.594024 376.000000 -89.244442
-101.904369 376.000000 -82.114154
-108.214714 376.000000 -73.060961
-114.525058 376.000000 -60.506371
-117.680231 376.000000 -44.358165
-111.369886 376.000000 -66.783666
-105.059541 376.000000 -77.587558
-118.060675 391.000000 -26.529779
-115.060675 391.000000 -10.655271
-109.060675 391.000000 11.390137
-103.060675 391.000000 22.010912
-112.060675 391.000000 5.219237
-106.060675 391.000000 17.561037
-100.060675 391.000000 26.460787
-94.060675 391.000000 33.470221
-88.060675 391.000000 39.196928
-82.060675 391.000000 43.954262
-76.060675 391.000000 47.928263
-70.060675 391.000000 51.239110
-64.060675 391.000000 53.968669
-58.060675 391.000000 56.174514
-52.060675 391.000000 57.897705
-46.060675 391.000000 59.167363
-40.060675 391.000000 60.003452
-34.060675 391.000000 60.418482
-28.060675 391.000000 60.418482
-22.060675 391.000000 60.003452
-16.060675 391.000000 59.167363
-10.060675 391.000000 57.897705
-4.060675 391.000000 56.174514
1.939325 391.000000 53.968669
7.939325 391.000000 51.239110
13.939325 391.000000 47.928263
19.939325 391.000000 43.954262
25.939325 391.000000 39.196928
31.939325 391.000000 33.470221
37.939325 391.000000 26.460787
43.939325 391.000000 17.561037
49.939325 391.000000 5.219237
52.939325 391.000000 -10.655271
46.939325 391.000000 11.390137
40.939325 391.000000 22.010912
55.939325 391.000000 -26.529779
52.939325 391.000000 -42.404286
46.939325 391.000000 -64.449694
40.939325 391.000000 -75.070469
49.939325 391.000000 -58.278794
43.939325 391.000000 -70.620594
37.939325 391.000000 -79.520344
31.939325 391.000000 -86.529779
25.939325 391.000000 -92.256486
19.939325 391.000000 -97.013819
13.939325 391.000000 -100.987820
7.939325 391.000000 -104.298667
1.939325 391.000000 -107.028226
-4.060675 391.000000 -109.234071
-10.060675 391.000000 -110.957262
-16.060675 391.000000 -112.226920
-22.060675 391.000000 -113.063009
-28.060675 391.000000 -113.478039
-34.060675 391.000000 -113.478039
-40.060675 391.000000 -113.063009
-46.060675 391.000000 -112.226920
-52.060675 391.000000 -110.957262
-58.060675 391.000000 -109.234071
-64.060675 391.000000 -107.028226
-70.060675 391.000000 -104.298667
-76.060675 391.000000 -100.987820
-82.060675 391.000000 -97.013819
-88.060675 391.000000 -92.256486
-94.060675 391.000000 -86.529779
-100.060675 391.000000 -79.520344
-106.060675 391.000000 -70.620594
-112.060675 391.000000 -58.278794
-115.060675 391.000000 -42.404286
-109.060675 391.000000 -64.449694
-103.060675 391.000000 -75.070469
-123.285947 406.000000 -25.849598
-120.268706 406.000000 -10.066323
-114.234223 406.000000 11.852387
-108.199740 406.000000 22.412122
-117.251464 406.000000 5.716952
-111.216981 406.000000 17.987821
-105.182499 406.000000 26.836423
-99.148016 406.000000 33.805574
-93.113533 406.000000 39.499369
-87.079050 406.000000 44.229362
-81.044568 406.000000 48.180524
-75.010085 406.000000 51.472342
-68.975602 406.000000 54.186214
-62.941119 406.000000 56.379382
-56.906637 406.000000 58.092670
-50.872154 406.000000 59.355030
-44.837671 406.000000 60.186315
-38.803188 406.000000 60.598959
-32.768706 406.000000 60.598959
-26.734223 406.000000 60.186315
-20.699740 406.000000 59.355030
-14.665257 406.000000 58.092670
-8.630775 406.000000 56.379382
-2.596292 406.000000 54.186214
3.438191 406.000000 51.472342
9.472674 406.000000 48.180524
15.507156 406.000000 44.229362
21.541639 406.000000 39.499369
27.576122 406.000000 33.805574
33.610605 406.000000 26.836423
39.645088 406.000000 17.987821
45.679570 406.000000 5.716952
48.696812 406.000000 -10.066323
42.662329 406.000000 11.852387
36.627846 406.000000 22.412122
51.714053 406.000000 -25.849598
48.696812 406.000000 -41.632873
42.662329 406.000000 -63.551583
36.627846 406.000000 -74.111319
45.679570 406.000000 -57.416149
39.645088 406.000000 -69.687018
33.610605 406.000000 -78.535620
27.576122 406.000000 -85.504771
21.541639 406.000000 -91.198566
15.507156 406.000000 -95.928558
9.472674 406.000000 -99.879721
3.438191 406.000000 -103.171539
-2.596292 406.000000 -105.885411
-8.630775 406.000000 -108.078579
-14.665257 406.000000 -109.791867
-20.699740 406.000000 -111.054227
-26.734223 406.000000 -111.885512
-32.768706 406.000000 -112.298156
-38.803188 406.000000 -112.298156
-44.837671 406.000000 -111.885512
-50.872154 406.000000 -111.054227
-56.906637 406.000000 -109.791867
-62.941119 406.000000 -108.078579
-68.975602 406.000000 -105.885411
-75.010085 406.000000 -103.171539
-81.044568 406.000000 -99.879721
-87.079050 406.000000 -95.928558
-93.113533 406.000000 -91.198566
-99.148016 406.000000 -85.504771
-105.182499 406.000000 -78.535620
-111.216981 406.000000 -69.687018
-117.251464 406.000000 -57.416149
-120.268706 406.000000 -41.632873
-114.234223 406.000000 -63.551583
-108.199740 406.000000 -74.111319
-123.511219 421.000000 -23.669418
-120.511219 421.000000 -8.068609
-114.511219 421.000000 13.596706
-108.511219 421.000000 24.034364
-117.511219 421.000000 7.532201
-111.511219 421.000000 19.661211
-105.511219 421.000000 28.407517
-99.511219 421.000000 35.296099
-93.511219 421.000000 40.924070
-87.511219 421.000000 45.599380
-81.511219 421.000000 49.504864
-75.511219 421.000000 52.758627
-69.511219 421.000000 55.441125
-63.511219 421.000000 57.608938
-57.511219 421.000000 59.302419
-51.511219 421.000000 60.550186
-45.511219 421.000000 61.371860
-39.511219 421.000000 61.779734
-33.511219 421.000000 61.779734
-27.511219 421.000000 61.371860
-21.511219 421.000000 60.550186
-15.511219 421.000000 59.302419
-9.511219 421.000000 57.608938
-3.511219 421.000000 55.441125
2.488781 421.000000 52.758627
8.488781 421.000000 49.504864
14.488781 421.000000 45.599380
20.488781 421.000000 40.924070
26.488781 421.000000 35.296099
32.488781 421.000000 28.407517
38.488781 421.000000 19.661211
44.488781 421.000000 7.532201
47.488781 421.000000 -8.068609
41.488781 421.000000 13.596706
35.488781 421.000000 24.034364
50.488781 421.000000 -23.669418
47.488781 421.000000 -39.270228
41.488781 421.000000 -60.935542
35.488781 421.000000 -71.373200
44.488781 421.000000 -54.871037
38.488781 421.000000 -67.000047
32.488781 421.000000 -75.746353
26.488781 421.000000 -82.634935
20.488781 421.000000 -88.262906
14.488781 421.000000 -92.938217
8.488781 421.000000 -96.843701
2.488781 421.000000 -100.097464
-3.511219 421.000000 -102.779961
-9.511219 421.000000 -104.947775
-15.511219 421.000000 -106.641256
-21.511219 421.000000 -107.889022
-27.511219 421.000000 -108.710697
-33.511219 421.000000 -109.118571
-39.511219 421.000000 -109.118571
-45.511219 421.000000 -108.710697
-51.511219 421.000000 -107.889022
-57.511219 421.000000 -106.641256
-63.511219 421.000000 -104.947775
-69.511219 421.000000 -102.779961
-75.511219 421.000000 -100.097464
-81.511219 421.000000 -96.843701
-87.511219 421.000000 -92.938217
-93.511219 421.000000 -88.262906
-99.511219 421.000000 -82.634935
-105.511219 421.000000 -75.746353
-111.511219 421.000000 -67.000047
-117.511219 421.000000 -54.871037
-120.511219 421.000000 -39.270228
-114.511219 421.000000 -60.935542
-108.511219 421.000000 -71.373200
-121.736491 436.000000 -22.989238
-118.736491 436.000000 -7.844593
-112.736491 436.000000 13.187233
-106.736491 436.000000 23.319696
-115.736491 436.000000 7.300053
-109.736491 436.000000 19.074413
-103.736491 436.000000 27.564979
-97.736491 436.000000 34.252141
-91.736491 436.000000 39.715551
-85.736491 436.000000 44.254157
-79.736491 436.000000 48.045446
-73.736491 436.000000 51.204069
-67.736491 436.000000 53.808131
-61.736491 436.000000 55.912558
-55.736491 436.000000 57.556522
-49.736491 436.000000 58.767805
-43.736491 436.000000 59.565453
-37.736491 436.000000 59.961401
-31.736491 436.000000 59.961401
-25.736491 436.000000 59.565453
-19.736491 436.000000 58.767805
-13.736491 436.000000 57.556522
-7.736491 436.000000 55.912558
-1.736491 436.000000 53.808131
4.263509 436.000000 51.204069
10.263509 436.000000 48.045446
16.263509 436.000000 44.254157
22.263509 436.000000 39.715551
28.263509 436.000000 34.252141
34.263509 436.000000 27.564979
40.263509 436.000000 19.074413
46.263509 436.000000 7.300053
49.263509 436.000000 -7.844593
43.263509 436.000000 13.187233
37.263509 436.000000 23.319696
52.263509 436.000000 -22.989238
49.263509 436.000000 -38.133883
43.263509 436.000000 -59.165709
37.263509 436.000000 -69.298172
46.263509 436.000000 -53.278529
40.263509 436.000000 -65.052890
34.263509 436.000000 -73.543455
28.263509 436.000000 -80.230617
22.263509 436.000000 -85.694027
16.263509 436.000000 -90.232633
10.263509 436.000000 -94.023922
4.263509 436.000000 -97.182545
-1.736491 436.000000 -99.786607
-7.736491 436.000000 -101.891034
-13.736491 436.000000 -103.534998
-19.736491 436.000000 -104.746281
-25.736491 436.000000 -105.543929
-31.736491 436.000000 -105.939877
-37.736491 436.000000 -105.939877
-43.736491 436.000000 -105.543929
-49.736491 436.000000 -104.746281
-55.736491 436.000000 -103.534998
-61.736491 436.000000 -101.891034
-67.736491 436.000000 -99.786607
-73.736491 436.000000 -97.182545
-79.736491 436.000000 -94.023922
-85.736491 436.000000 -90.232633
-91.736491 436.000000 -85.694027
-97.736491 436.000000 -80.230617
-103.736491 436.000000 -73.543455
-109.736491 436.000000 -65.052890
-115.736491 436.000000 -53.278529
-118.736491 436.000000 -38.133883
-112.736491 436.000000 -59.165709
-106.736491 436.000000 -69.298172
-120.961763 451.000000 -22.309058
-118.065211 451.000000 -7.620576
-112.272107 451.000000 12.777761
-106.479004 451.000000 22.605029
-115.168659 451.000000 7.067905
-109.375556 451.000000 18.487616
-103.582452 451.000000 26.722442
-97.789349 451.000000 33.208183
-91.996245 451.000000 38.507033
-86.203142 451.000000 42.908934
-80.410038 451.000000 46.586027
-74.616935 451.000000 49.649511
-68.823832 451.000000 52.175138
-63.030728 451.000000 54.216178
-57.237625 451.000000 55.810625
-51.444521 451.000000 56.985423
-45.651418 451.000000 57.759046
-39.858314 451.000000 58.143068
-34.065211 451.000000 58.143068
-28.272107 451.000000 57.759046
-22.479004 451.000000 56.985423
-16.685901 451.000000 55.810625
-10.892797 451.000000 54.216178
-5.099694 451.000000 52.175138
0.693410 451.000000 49.649511
6.486513 451.000000 46.586027
12.279617 451.000000 42.908934
18.072720 451.000000 38.507033
23.865824 451.000000 33.208183
29.658927 451.000000 26.722442
35.452031 451.000000 18.487616
41.245134 451.000000 7.067905
44.141686 451.000000 -7.620576
38.348582 451.000000 12.777761
32.555479 451.000000 22.605029
47.038237 451.000000 -22.309058
44.141686 451.000000 -36.997539
38.348582 451.000000 -57.395876
32.555479 451.000000 -67.223145
41.245134 451.000000 -51.686021
35.452031 451.000000 -63.105732
29.658927 451.000000 -71.340558
23.865824 451.000000 -77.826299
18.072720 451.000000 -83.125149
12.279617 451.000000 -87.527050
6.486513 451.000000 -91.204143
0.693410 451.000000 -94.267627
-5.099694 451.000000 -96.793253
-10.892797 451.000000 -98.834294
-16.685901 451.000000 -100.428741
-22.479004 451.000000 -101.603539
-28.272107 451.000000 -102.377162
-34.065211 451.000000 -102.761184
-39.858314 451.000000 -102.761184
-45.651418 451.000000 -102.377162
-51.444521 451.000000 -101.603539
-57.237625 451.000000 -100.428741
-63.030728 451.000000 -98.834294
-68.823832 451.000000 -96.793253
-74.616935 451.000000 -94.267627
-80.410038 451.000000 -91.204143
-86.203142 451.000000 -87.527050
-91.996245 451.000000 -83.125149
-97.789349 451.000000 -77.826299
-103.582452 451.000000 -71.340558
-109.375556 451.000000 -63.105732
-115.168659 451.000000 -51.686021
-118.065211 451.000000 -36.997539
-112.272107 451.000000 -57.395876
-106.479004 451.000000 -67.223145
-119.187034 466.000000 -22.128878
-116.411172 466.000000 -8.352724
-110.859448 466.000000 10.778635
-105.307724 466.000000 19.995514
-113.635310 466.000000 5.423429
-108.083586 466.000000 16.133841
-102.531862 466.000000 23.857187
-96.980138 466.000000 29.940088
-91.428414 466.000000 34.909816
-85.876690 466.000000 39.038307
-80.324966 466.000000 42.487009
-74.773241 466.000000 45.360215
-69.221517 466.000000 47.728970
-63.669793 466.000000 49.643238
-58.118069 466.000000 51.138651
-52.566345 466.000000 52.240480
-47.014621 466.000000 52.966052
-41.462897 466.000000 53.326222
-35.911172 466.000000 53.326222
-30.359448 466.000000 52.966052
-24.807724 466.000000 52.240480
-19.256000 466.000000 51.138651
-13.704276 466.000000 49.643238
-8.152552 466.000000 47.728970
-2.600828 466.000000 45.360215
2.950897 466.000000 42.487009
8.502621 466.000000 39.038307
14.054345 466.000000 34.909816
19.606069 466.000000 29.940088
25.157793 466.000000 23.857187
30.709517 466.000000 16.133841
36.261241 466.000000 5.423429
39.037103 466.000000 -8.352724
33.485379 466.000000 10.778635
27.933655 466.000000 19.995514
41.812966 466.000000 -22.128878
39.037103 466.000000 -35.905031
33.485379 466.000000 -55.036391
27.933655 466.000000 -64.253270
36.261241 466.000000 -49.681184
30.709517 466.000000 -60.391597
25.157793 466.000000 -68.114943
19.606069 466.000000 -74.197843
14.054345 466.000000 -79.167572
8.502621 466.000000 -83.296062
2.950897 466.000000 -86.744765
-2.600828 466.000000 -89.617970
