ply
format ascii 1.0
element vertex 1496
property float x
property float y
property float z
element face 0
property list uchar int vertex_index
end_header
35.602283 386.000000 -65.542188
30.969630 386.000000 -65.674771
26.336977 386.000000 -65.674771
21.704323 386.000000 -65.542188
17.071670 386.000000 -65.276355
12.439017 386.000000 -64.875922
7.806364 386.000000 -64.338820
3.173711 386.000000 -63.662205
-1.458942 386.000000 -62.842385
-6.091595 386.000000 -61.874704
-10.724248 386.000000 -60.753407
-15.356901 386.000000 -59.471442
-19.989554 386.000000 -58.020207
-24.622207 386.000000 -56.389204
-29.254860 386.000000 -54.565571
-33.887513 386.000000 -52.533424
-38.520166 386.000000 -50.272928
-43.152819 386.000000 -47.758938
-47.785472 386.000000 -44.958930
-52.418126 386.000000 -41.829738
-57.050779 386.000000 -38.312107
-61.683432 386.000000 -34.320943
-66.316085 386.000000 -29.726203
-70.948738 386.000000 -24.310248
-75.581391 386.000000 -17.651781
-80.214044 386.000000 -8.672641
-82.530370 386.000000 2.568015
-77.897717 386.000000 -13.162211
-73.265064 386.000000 -20.981015
-85.734889 391.000000 13.650495
-83.408358 391.000000 24.749760
-78.755297 391.000000 40.282122
-74.102236 391.000000 48.002576
-81.081828 391.000000 35.849024
-76.428767 391.000000 44.715219
-71.775705 391.000000 51.289932
-67.122644 391.000000 56.637761
-62.469583 391.000000 61.174706
-57.816522 391.000000 65.115667
-53.163461 391.000000 68.589051
-48.510399 391.000000 71.678882
-43.857338 391.000000 74.443670
-39.204277 391.000000 76.926038
-34.551216 391.000000 79.158099
-29.898154 391.000000 81.164685
-25.245093 391.000000 82.965379
-20.592032 391.000000 84.575866
-15.938971 391.000000 86.008846
-11.285910 391.000000 87.274686
-6.632848 391.000000 88.381879
-1.979787 391.000000 89.337387
2.673274 391.000000 90.146896
7.326335 391.000000 90.814999
11.979397 391.000000 91.345346
16.632458 391.000000 91.740742
21.285519 391.000000 92.003231
25.938580 391.000000 92.134146
30.591642 391.000000 92.134146
35.244703 391.000000 92.003231
39.897764 391.000000 91.740742
44.550825 391.000000 91.345346
49.203886 391.000000 90.814999
53.856948 391.000000 90.146896
58.510009 391.000000 89.337387
63.163070 391.000000 88.381879
67.816131 391.000000 87.274686
72.469193 391.000000 86.008846
77.122254 391.000000 84.575866
81.775315 391.000000 82.965379
86.428376 391.000000 81.164685
91.081437 391.000000 79.158099
95.734499 391.000000 76.926038
100.387560 391.000000 74.443670
105.040621 391.000000 71.678882
109.693682 391.000000 68.589051
114.346744 391.000000 65.115667
118.999805 391.000000 61.174706
123.652866 391.000000 56.637761
128.305927 391.000000 51.289932
132.958988 391.000000 44.715219
137.612050 391.000000 35.849024
139.938580 391.000000 24.749760
135.285519 391.000000 40.282122
130.632458 391.000000 48.002576
142.265111 391.000000 13.650495
139.938580 391.000000 2.551231
135.285519 391.000000 -12.981131
130.632458 391.000000 -20.701585
137.612050 391.000000 -8.548033
132.958988 391.000000 -17.414229
128.305927 391.000000 -23.988941
123.652866 391.000000 -29.336771
118.999805 391.000000 -33.873715
114.346744 391.000000 -37.814676
109.693682 391.000000 -41.288060
105.040621 391.000000 -44.377891
100.387560 391.000000 -47.142679
95.734499 391.000000 -49.625047
91.081437 391.000000 -51.857108
86.428376 391.000000 -53.863694
81.775315 391.000000 -55.664388
77.122254 391.000000 -57.274875
72.469193 391.000000 -58.707855
67.816131 391.000000 -59.973695
63.163070 391.000000 -61.080888
58.510009 391.000000 -62.036397
53.856948 391.000000 -62.845905
49.203886 391.000000 -63.514009
44.550825 391.000000 -64.044355
39.897764 391.000000 -64.439751
35.244703 391.000000 -64.702240
30.591642 391.000000 -64.833155
25.938580 391.000000 -64.833155
21.285519 391.000000 -64.702240
16.632458 391.000000 -64.439751
11.979397 391.000000 -64.044355
7.326335 391.000000 -63.514009
2.673274 391.000000 -62.845905
-1.979787 391.000000 -62.036397
-6.632848 391.000000 -61.080888
-11.285910 391.000000 -59.973695
-15.938971 391.000000 -58.707855
-20.592032 391.000000 -57.274875
-25.245093 391.000000 -55.664388
-29.898154 391.000000 -53.863694
-34.551216 391.000000 -51.857108
-39.204277 391.000000 -49.625047
-43.857338 391.000000 -47.142679
-48.510399 391.000000 -44.377891
-53.163461 391.000000 -41.288060
-57.816522 391.000000 -37.814676
-62.469583 391.000000 -33.873715
-67.122644 391.000000 -29.336771
-71.775705 391.000000 -23.988941
-76.428767 391.000000 -17.414229
-81.081828 391.000000 -8.548033
-83.408358 391.000000 2.551231
-78.755297 391.000000 -12.981131
-74.102236 391.000000 -20.701585
-85.623081 396.000000 12.992319
-83.296551 396.000000 24.020888
-78.643489 396.000000 39.454317
-73.990428 396.000000 47.125597
-80.970020 396.000000 35.049456
-76.316959 396.000000 43.859179
-71.663898 396.000000 50.392014
-67.010836 396.000000 55.705781
-62.357775 396.000000 60.213828
-57.704714 396.000000 64.129687
-53.051653 396.000000 67.580948
-48.398591 396.000000 70.651098
-43.745530 396.000000 73.398276
-39.092469 396.000000 75.864833
-34.439408 396.000000 78.082677
-29.786347 396.000000 80.076482
-25.133285 396.000000 81.865707
-20.480224 396.000000 83.465936
-15.827163 396.000000 84.889789
-11.174102 396.000000 86.147566
-6.521040 396.000000 87.247707
-1.867979 396.000000 88.197129
2.785082 396.000000 89.001482
7.438143 396.000000 89.665330
12.091204 396.000000 90.192298
16.744266 396.000000 90.585176
21.397327 396.000000 90.845993
26.050388 396.000000 90.976074
30.703449 396.000000 90.976074
35.356511 396.000000 90.845993
40.009572 396.000000 90.585176
44.662633 396.000000 90.192298
49.315694 396.000000 89.665330
53.968755 396.000000 89.001482
58.621817 396.000000 88.197129
63.274878 396.000000 87.247707
67.927939 396.000000 86.147566
72.581000 396.000000 84.889789
77.234062 396.000000 83.465936
81.887123 396.000000 81.865707
86.540184 396.000000 80.076482
91.193245 396.000000 78.082677
95.846307 396.000000 75.864833
100.499368 396.000000 73.398276
105.152429 396.000000 70.651098
109.805490 396.000000 67.580948
114.458551 396.000000 64.129687
119.111613 396.000000 60.213828
123.764674 396.000000 55.705781
128.417735 396.000000 50.392014
133.070796 396.000000 43.859179
137.723858 396.000000 35.049456
140.050388 396.000000 24.020888
135.397327 396.000000 39.454317
130.744266 396.000000 47.125597
142.376919 396.000000 12.992319
140.050388 396.000000 1.963751
135.397327 396.000000 -13.469679
130.744266 396.000000 -21.140958
137.723858 396.000000 -9.064818
133.070796 396.000000 -17.874540
128.417735 396.000000 -24.407376
123.764674 396.000000 -29.721143
119.111613 396.000000 -34.229190
114.458551 396.000000 -38.145049
109.805490 396.000000 -41.596309
105.152429 396.000000 -44.666460
100.499368 396.000000 -47.413638
95.846307 396.000000 -49.880194
91.193245 396.000000 -52.098039
86.540184 396.000000 -54.091843
81.887123 396.000000 -55.881068
77.234062 396.000000 -57.481297
72.581000 396.000000 -58.905150
67.927939 396.000000 -60.162928
63.274878 396.000000 -61.263068
58.621817 396.000000 -62.212491
53.968755 396.000000 -63.016843
49.315694 396.000000 -63.680691
44.662633 396.000000 -64.207660
40.009572 396.000000 -64.600537
35.356511 396.000000 -64.861354
30.703449 396.000000 -64.991436
26.050388 396.000000 -64.991436
21.397327 396.000000 -64.861354
16.744266 396.000000 -64.600537
12.091204 396.000000 -64.207660
7.438143 396.000000 -63.680691
2.785082 396.000000 -63.016843
-1.867979 396.000000 -62.212491
-6.521040 396.000000 -61.263068
-11.174102 396.000000 -60.162928
-15.827163 396.000000 -58.905150
-20.480224 396.000000 -57.481297
-25.133285 396.000000 -55.881068
-29.786347 396.000000 -54.091843
-34.439408 396.000000 -52.098039
-39.092469 396.000000 -49.880194
-43.745530 396.000000 -47.413638
-48.398591 396.000000 -44.666460
-53.051653 396.000000 -41.596309
-57.704714 396.000000 -38.145049
-62.357775 396.000000 -34.229190
-67.010836 396.000000 -29.721143
-71.663898 396.000000 -24.407376
-76.316959 396.000000 -17.874540
-80.970020 396.000000 -9.064818
-83.296551 396.000000 1.963751
-78.643489 396.000000 -13.469679
-73.990428 396.000000 -21.140958
-86.511273 401.000000 13.334143
-84.184743 401.000000 24.292015
-79.531682 401.000000 39.626513
-74.878620 401.000000 47.248617
-81.858212 401.000000 35.249888
-77.205151 401.000000 44.003138
-72.552090 401.000000 50.494096
-67.899028 401.000000 55.773801
-63.245967 401.000000 60.252950
-58.592906 401.000000 64.143707
-53.939845 401.000000 67.572844
-49.286784 401.000000 70.623314
-44.633722 401.000000 73.352882
-39.980661 401.000000 75.803627
-35.327600 401.000000 78.007255
-30.674539 401.000000 79.988279
-26.021477 401.000000 81.766035
-21.368416 401.000000 83.356005
-16.715355 401.000000 84.770731
-12.062294 401.000000 86.020446
-7.409233 401.000000 87.113534
-2.756171 401.000000 88.056871
1.896890 401.000000 88.856067
6.549951 401.000000 89.515660
11.203012 401.000000 90.039250
15.856074 401.000000 90.429610
20.509135 401.000000 90.688755
25.162196 401.000000 90.818002
29.815257 401.000000 90.818002
34.468318 401.000000 90.688755
39.121380 401.000000 90.429610
43.774441 401.000000 90.039250
48.427502 401.000000 89.515660
53.080563 401.000000 88.856067
57.733625 401.000000 88.056871
62.386686 401.000000 87.113534
67.039747 401.000000 86.020446
71.692808 401.000000 84.770731
76.345869 401.000000 83.356005
80.998931 401.000000 81.766035
85.651992 401.000000 79.988279
90.305053 401.000000 78.007255
94.958114 401.000000 75.803627
99.611176 401.000000 73.352882
104.264237 401.000000 70.623314
108.917298 401.000000 67.572844
113.570359 401.000000 64.143707
118.223420 401.000000 60.252950
122.876482 401.000000 55.773801
127.529543 401.000000 50.494096
132.182604 401.000000 44.003138
136.835665 401.000000 35.249888
139.162196 401.000000 24.292015
134.509135 401.000000 39.626513
129.856074 401.000000 47.248617
141.488727 401.000000 13.334143
139.162196 401.000000 2.376271
134.509135 401.000000 -12.958227
129.856074 401.000000 -20.580331
136.835665 401.000000 -8.581602
132.182604 401.000000 -17.334852
127.529543 401.000000 -23.825810
122.876482 401.000000 -29.105515
118.223420 401.000000 -33.584664
113.570359 401.000000 -37.475421
108.917298 401.000000 -40.904558
104.264237 401.000000 -43.955028
99.611176 401.000000 -46.684596
94.958114 401.000000 -49.135341
90.305053 401.000000 -51.338969
85.651992 401.000000 -53.319993
80.998931 401.000000 -55.097749
76.345869 401.000000 -56.687719
71.692808 401.000000 -58.102445
67.039747 401.000000 -59.352160
62.386686 401.000000 -60.445248
57.733625 401.000000 -61.388585
53.080563 401.000000 -62.187781
48.427502 401.000000 -62.847374
43.774441 401.000000 -63.370964
39.121380 401.000000 -63.761323
34.468318 401.000000 -64.020469
29.815257 401.000000 -64.149716
25.162196 401.000000 -64.149716
20.509135 401.000000 -64.020469
15.856074 401.000000 -63.761323
11.203012 401.000000 -63.370964
6.549951 401.000000 -62.847374
1.896890 401.000000 -62.187781
-2.756171 401.000000 -61.388585
-7.409233 401.000000 -60.445248
-12.062294 401.000000 -59.352160
-16.715355 401.000000 -58.102445
-21.368416 401.000000 -56.687719
-26.021477 401.000000 -55.097749
-30.674539 401.000000 -53.319993
-35.327600 401.000000 -51.338969
-39.980661 401.000000 -49.135341
-44.633722 401.000000 -46.684596
-49.286784 401.000000 -43.955028
-53.939845 401.000000 -40.904558
-58.592906 401.000000 -37.475421
-63.245967 401.000000 -33.584664
-67.899028 401.000000 -29.105515
-72.552090 401.000000 -23.825810
-77.205151 401.000000 -17.334852
-81.858212 401.000000 -8.581602
-84.184743 401.000000 2.376271
-79.531682 401.000000 -12.958227
-74.878620 401.000000 -20.580331
-86.399466 406.000000 13.175967
-84.062731 406.000000 24.133839
-79.389261 406.000000 39.468337
-74.715792 406.000000 47.090441
-81.725996 406.000000 35.091712
-77.052527 406.000000 43.844962
-72.379057 406.000000 50.335920
-67.705588 406.000000 55.615624
-63.032119 406.000000 60.094774
-58.358649 406.000000 63.985531
-53.685180 406.000000 67.414668
-49.011710 406.000000 70.465138
-44.338241 406.000000 73.194706
-39.664772 406.000000 75.645451
-34.991302 406.000000 77.849079
-30.317833 406.000000 79.830103
-25.644363 406.000000 81.607858
-20.970894 406.000000 83.197829
-16.297425 406.000000 84.612555
-11.623955 406.000000 85.862270
-6.950486 406.000000 86.955358
-2.277017 406.000000 87.898695
2.396453 406.000000 88.697891
7.069922 406.000000 89.357484
11.743392 406.000000 89.881074
16.416861 406.000000 90.271433
21.090330 406.000000 90.530578
25.763800 406.000000 90.659826
30.437269 406.000000 90.659826
35.110739 406.000000 90.530578
39.784208 406.000000 90.271433
44.457677 406.000000 89.881074
49.131147 406.000000 89.357484
53.804616 406.000000 88.697891
58.478085 406.000000 87.898695
63.151555 406.000000 86.955358
67.825024 406.000000 85.862270
72.498494 406.000000 84.612555
77.171963 406.000000 83.197829
81.845432 406.000000 81.607858
86.518902 406.000000 79.830103
91.192371 406.000000 77.849079
95.865841 406.000000 75.645451
100.539310 406.000000 73.194706
105.212779 406.000000 70.465138
109.886249 406.000000 67.414668
114.559718 406.000000 63.985531
119.233188 406.000000 60.094774
123.906657 406.000000 55.615624
128.580126 406.000000 50.335920
133.253596 406.000000 43.844962
137.927065 406.000000 35.091712
140.263800 406.000000 24.133839
135.590330 406.000000 39.468337
130.916861 406.000000 47.090441
142.600534 406.000000 13.175967
140.263800 406.000000 2.218094
135.590330 406.000000 -13.116403
130.916861 406.000000 -20.738507
137.927065 406.000000 -8.739778
133.253596 406.000000 -17.493028
128.580126 406.000000 -23.983987
123.906657 406.000000 -29.263691
119.233188 406.000000 -33.742840
114.559718 406.000000 -37.633598
109.886249 406.000000 -41.062735
105.212779 406.000000 -44.113204
100.539310 406.000000 -46.842772
95.865841 406.000000 -49.293518
91.192371 406.000000 -51.497145
86.518902 406.000000 -53.478169
81.845432 406.000000 -55.255925
77.171963 406.000000 -56.845896
72.498494 406.000000 -58.260622
67.825024 406.000000 -59.510336
63.151555 406.000000 -60.603425
58.478085 406.000000 -61.546761
53.804616 406.000000 -62.345957
49.131147 406.000000 -63.005550
44.457677 406.000000 -63.529140
39.784208 406.000000 -63.919500
35.110739 406.000000 -64.178645
30.437269 406.000000 -64.307892
25.763800 406.000000 -64.307892
21.090330 406.000000 -64.178645
16.416861 406.000000 -63.919500
11.743392 406.000000 -63.529140
7.069922 406.000000 -63.005550
2.396453 406.000000 -62.345957
-2.277017 406.000000 -61.546761
-6.950486 406.000000 -60.603425
-11.623955 406.000000 -59.510336
-16.297425 406.000000 -58.260622
-20.970894 406.000000 -56.845896
-25.644363 406.000000 -55.255925
-30.317833 406.000000 -53.478169
-34.991302 406.000000 -51.497145
-39.664772 406.000000 -49.293518
-44.338241 406.000000 -46.842772
-49.011710 406.000000 -44.113204
-53.685180 406.000000 -41.062735
-58.358649 406.000000 -37.633598
-63.032119 406.000000 -33.742840
-67.705588 406.000000 -29.263691
-72.379057 406.000000 -23.983987
-77.052527 406.000000 -17.493028
-81.725996 406.000000 -8.739778
-84.062731 406.000000 2.218094
-79.389261 406.000000 -13.116403
-74.715792 406.000000 -20.738507
-86.287658 411.000000 13.517791
-83.961127 411.000000 24.404967
-79.308066 411.000000 39.640532
-74.655005 411.000000 47.213462
-81.634596 411.000000 35.292144
-76.981535 411.000000 43.988921
-72.328474 411.000000 50.438002
-67.675413 411.000000 55.683644
-63.022352 411.000000 60.133895
-58.369290 411.000000 63.999551
-53.716229 411.000000 67.406565
-49.063168 411.000000 70.437354
-44.410107 411.000000 73.149312
-39.757045 411.000000 75.584246
-35.103984 411.000000 77.773657
-30.450923 411.000000 79.741900
-25.797862 411.000000 81.508186
-21.144801 411.000000 83.087899
-16.491739 411.000000 84.493498
-11.838678 411.000000 85.735150
-7.185617 411.000000 86.821186
-2.532556 411.000000 87.758436
2.120506 411.000000 88.552476
6.773567 411.000000 89.207814
11.426628 411.000000 89.728026
16.079689 411.000000 90.115867
20.732750 411.000000 90.373340
25.385812 411.000000 90.501754
30.038873 411.000000 90.501754
34.691934 411.000000 90.373340
39.344995 411.000000 90.115867
43.998057 411.000000 89.728026
48.651118 411.000000 89.207814
53.304179 411.000000 88.552476
57.957240 411.000000 87.758436
62.610302 411.000000 86.821186
67.263363 411.000000 85.735150
71.916424 411.000000 84.493498
76.569485 411.000000 83.087899
81.222546 411.000000 81.508186
85.875608 411.000000 79.741900
90.528669 411.000000 77.773657
95.181730 411.000000 75.584246
99.834791 411.000000 73.149312
104.487853 411.000000 70.437354
109.140914 411.000000 67.406565
113.793975 411.000000 63.999551
118.447036 411.000000 60.133895
123.100097 411.000000 55.683644
127.753159 411.000000 50.438002
132.406220 411.000000 43.988921
137.059281 411.000000 35.292144
139.385812 411.000000 24.404967
134.732750 411.000000 39.640532
130.079689 411.000000 47.213462
141.712342 411.000000 13.517791
139.385812 411.000000 2.630614
134.732750 411.000000 -12.604951
130.079689 411.000000 -20.177881
137.059281 411.000000 -8.256562
132.406220 411.000000 -16.953340
127.753159 411.000000 -23.402421
123.100097 411.000000 -28.648063
118.447036 411.000000 -33.098314
113.793975 411.000000 -36.963970
109.140914 411.000000 -40.370984
104.487853 411.000000 -43.401773
99.834791 411.000000 -46.113731
95.181730 411.000000 -48.548665
90.528669 411.000000 -50.738075
85.875608 411.000000 -52.706319
81.222546 411.000000 -54.472605
76.569485 411.000000 -56.052318
71.916424 411.000000 -57.457917
67.263363 411.000000 -58.699568
62.610302 411.000000 -59.785605
57.957240 411.000000 -60.722855
53.304179 411.000000 -61.516895
48.651118 411.000000 -62.172232
43.998057 411.000000 -62.692445
39.344995 411.000000 -63.080286
34.691934 411.000000 -63.337759
30.038873 411.000000 -63.466173
25.385812 411.000000 -63.466173
20.732750 411.000000 -63.337759
16.079689 411.000000 -63.080286
11.426628 411.000000 -62.692445
6.773567 411.000000 -62.172232
2.120506 411.000000 -61.516895
-2.532556 411.000000 -60.722855
-7.185617 411.000000 -59.785605
-11.838678 411.000000 -58.699568
-16.491739 411.000000 -57.457917
-21.144801 411.000000 -56.052318
-25.797862 411.000000 -54.472605
-30.450923 411.000000 -52.706319
-35.103984 411.000000 -50.738075
-39.757045 411.000000 -48.548665
-44.410107 411.000000 -46.113731
-49.063168 411.000000 -43.401773
-53.716229 411.000000 -40.370984
-58.369290 411.000000 -36.963970
-63.022352 411.000000 -33.098314
-67.675413 411.000000 -28.648063
-72.328474 411.000000 -23.402421
-76.981535 411.000000 -16.953340
-81.634596 411.000000 -8.256562
-83.961127 411.000000 2.630614
-79.308066 411.000000 -12.604951
-74.655005 411.000000 -20.177881
-87.175850 416.000000 13.859614
-84.849319 416.000000 24.676095
-80.196258 416.000000 39.812728
-75.543197 416.000000 47.336482
-82.522789 416.000000 35.492575
-77.869727 416.000000 44.132880
-73.216666 416.000000 50.540085
-68.563605 416.000000 55.751663
-63.910544 416.000000 60.173017
-59.257482 416.000000 64.013571
-54.604421 416.000000 67.398462
-49.951360 416.000000 70.409571
-45.298299 416.000000 73.103918
-40.645238 416.000000 75.523041
-35.992176 416.000000 77.698235
-31.339115 416.000000 79.653697
-26.686054 416.000000 81.408514
-22.032993 416.000000 82.977969
-17.379931 416.000000 84.374440
-12.726870 416.000000 85.608029
-8.073809 416.000000 86.687014
-3.420748 416.000000 87.618178
1.232313 416.000000 88.407062
5.885375 416.000000 89.058144
10.538436 416.000000 89.574978
15.191497 416.000000 89.960301
19.844558 416.000000 90.216102
24.497620 416.000000 90.343682
29.150681 416.000000 90.343682
33.803742 416.000000 90.216102
38.456803 416.000000 89.960301
43.109864 416.000000 89.574978
47.762926 416.000000 89.058144
52.415987 416.000000 88.407062
57.069048 416.000000 87.618178
61.722109 416.000000 86.687014
66.375171 416.000000 85.608029
71.028232 416.000000 84.374440
75.681293 416.000000 82.977969
80.334354 416.000000 81.408514
84.987415 416.000000 79.653697
89.640477 416.000000 77.698235
94.293538 416.000000 75.523041
98.946599 416.000000 73.103918
103.599660 416.000000 70.409571
108.252722 416.000000 67.398462
112.905783 416.000000 64.013571
117.558844 416.000000 60.173017
122.211905 416.000000 55.751663
126.864967 416.000000 50.540085
131.518028 416.000000 44.132880
136.171089 416.000000 35.492575
138.497620 416.000000 24.676095
133.844558 416.000000 39.812728
129.191497 416.000000 47.336482
140.824150 416.000000 13.859614
138.497620 416.000000 3.043134
133.844558 416.000000 -12.093499
129.191497 416.000000 -19.617254
136.171089 416.000000 -7.773347
131.518028 416.000000 -16.413652
126.864967 416.000000 -22.820856
122.211905 416.000000 -28.032435
117.558844 416.000000 -32.453788
112.905783 416.000000 -36.294343
108.252722 416.000000 -39.679233
103.599660 416.000000 -42.690342
98.946599 416.000000 -45.384690
94.293538 416.000000 -47.803812
89.640477 416.000000 -49.979006
84.987415 416.000000 -51.934468
80.334354 416.000000 -53.689285
75.681293 416.000000 -55.258740
71.028232 416.000000 -56.655212
66.375171 416.000000 -57.888801
61.722109 416.000000 -58.967785
57.069048 416.000000 -59.898949
52.415987 416.000000 -60.687833
47.762926 416.000000 -61.338915
43.109864 416.000000 -61.855749
38.456803 416.000000 -62.241072
33.803742 416.000000 -62.496873
29.150681 416.000000 -62.624453
24.497620 416.000000 -62.624453
19.844558 416.000000 -62.496873
15.191497 416.000000 -62.241072
10.538436 416.000000 -61.855749
5.885375 416.000000 -61.338915
1.232313 416.000000 -60.687833
-3.420748 416.000000 -59.898949
-8.073809 416.000000 -58.967785
-12.726870 416.000000 -57.888801
-17.379931 416.000000 -56.655212
-22.032993 416.000000 -55.258740
-26.686054 416.000000 -53.689285
-31.339115 416.000000 -51.934468
-35.992176 416.000000 -49.979006
-40.645238 416.000000 -47.803812
-45.298299 416.000000 -45.384690
-49.951360 416.000000 -42.690342
-54.604421 416.000000 -39.679233
-59.257482 416.000000 -36.294343
-63.910544 416.000000 -32.453788
-68.563605 416.000000 -28.032435
-73.216666 416.000000 -22.820856
-77.869727 416.000000 -16.413652
-82.522789 416.000000 -7.773347
-84.849319 416.000000 3.043134
-80.196258 416.000000 -12.093499
-75.543197 416.000000 -19.617254
-87.064042 421.000000 13.201438
-84.747715 421.000000 23.947223
-80.115062 421.000000 38.984924
-75.482409 421.000000 46.459503
-82.431389 421.000000 34.693007
-77.798736 421.000000 43.276840
-73.166083 421.000000 49.642167
-68.533430 421.000000 54.819683
-63.900777 421.000000 59.212139
-59.268124 421.000000 63.027592
-54.635471 421.000000 66.390358
-50.002817 421.000000 69.381787
-45.370164 421.000000 72.058524
-40.737511 421.000000 74.461836
-36.104858 421.000000 76.622812
-31.472205 421.000000 78.565494
-26.839552 421.000000 80.308841
-22.206899 421.000000 81.868039
-17.574246 421.000000 83.255383
-12.941593 421.000000 84.480909
-8.308940 421.000000 85.552841
-3.676287 421.000000 86.477920
0.956366 421.000000 87.261648
5.589019 421.000000 87.908474
10.221672 421.000000 88.421930
14.854325 421.000000 88.804734
19.486978 421.000000 89.058864
24.119632 421.000000 89.185610
28.752285 421.000000 89.185610
33.384938 421.000000 89.058864
38.017591 421.000000 88.804734
42.650244 421.000000 88.421930
47.282897 421.000000 87.908474
51.915550 421.000000 87.261648
56.548203 421.000000 86.477920
61.180856 421.000000 85.552841
65.813509 421.000000 84.480909
70.446162 421.000000 83.255383
75.078815 421.000000 81.868039
79.711468 421.000000 80.308841
84.344121 421.000000 78.565494
88.976774 421.000000 76.622812
93.609427 421.000000 74.461836
98.242080 421.000000 72.058524
102.874734 421.000000 69.381787
107.507387 421.000000 66.390358
112.140040 421.000000 63.027592
116.772693 421.000000 59.212139
121.405346 421.000000 54.819683
126.037999 421.000000 49.642167
130.670652 421.000000 43.276840
135.303305 421.000000 34.693007
137.619632 421.000000 23.947223
132.986978 421.000000 38.984924
128.354325 421.000000 46.459503
139.935958 421.000000 13.201438
137.619632 421.000000 2.455654
132.986978 421.000000 -12.582047
128.354325 421.000000 -20.056627
135.303305 421.000000 -8.290131
130.670652 421.000000 -16.873963
126.037999 421.000000 -23.239290
121.405346 421.000000 -28.416807
116.772693 421.000000 -32.809263
112.140040 421.000000 -36.624715
107.507387 421.000000 -39.987482
102.874734 421.000000 -42.978910
98.242080 421.000000 -45.655648
93.609427 421.000000 -48.058959
88.976774 421.000000 -50.219936
84.344121 421.000000 -52.162618
79.711468 421.000000 -53.905965
75.078815 421.000000 -55.465162
70.446162 421.000000 -56.852507
65.813509 421.000000 -58.078033
61.180856 421.000000 -59.149965
56.548203 421.000000 -60.075043
51.915550 421.000000 -60.858771
47.282897 421.000000 -61.505598
42.650244 421.000000 -62.019054
38.017591 421.000000 -62.401858
33.384938 421.000000 -62.655987
28.752285 421.000000 -62.782733
24.119632 421.000000 -62.782733
19.486978 421.000000 -62.655987
14.854325 421.000000 -62.401858
10.221672 421.000000 -62.019054
5.589019 421.000000 -61.505598
0.956366 421.000000 -60.858771
-3.676287 421.000000 -60.075043
-8.308940 421.000000 -59.149965
-12.941593 421.000000 -58.078033
-17.574246 421.000000 -56.852507
-22.206899 421.000000 -55.465162
-26.839552 421.000000 -53.905965
-31.472205 421.000000 -52.162618
-36.104858 421.000000 -50.219936
-40.737511 421.000000 -48.058959
-45.370164 421.000000 -45.655648
-50.002817 421.000000 -42.978910
-54.635471 421.000000 -39.987482
-59.268124 421.000000 -36.624715
-63.900777 421.000000 -32.809263
-68.533430 421.000000 -28.416807
-73.166083 421.000000 -23.239290
-77.798736 421.000000 -16.873963
-82.431389 421.000000 -8.290131
-84.747715 421.000000 2.455654
-80.115062 421.000000 -12.582047
-75.482409 421.000000 -20.056627
-86.952234 426.000000 13.043262
-84.656316 426.000000 23.647655
-80.064479 426.000000 38.487491
-75.472642 426.000000 45.863721
-82.360397 426.000000 34.252047
-77.768561 426.000000 42.722935
-73.176724 426.000000 49.004507
-68.584887 426.000000 54.113898
-63.993050 426.000000 58.448559
-59.401214 426.000000 62.213808
-54.809377 426.000000 65.532328
-50.217540 426.000000 68.484395
-45.625703 426.000000 71.125913
-41.033867 426.000000 73.497602
-36.442030 426.000000 75.630144
-31.850193 426.000000 77.547265
-27.258357 426.000000 79.267673
-22.666520 426.000000 80.806355
-18.074683 426.000000 82.175444
-13.482846 426.000000 83.384845
-8.891010 426.000000 84.442673
-4.299173 426.000000 85.355579
0.292664 426.000000 86.128995
4.884501 426.000000 86.767310
9.476337 426.000000 87.274011
14.068174 426.000000 87.651778
18.660011 426.000000 87.902564
23.251848 426.000000 88.027642
27.843684 426.000000 88.027642
32.435521 426.000000 87.902564
37.027358 426.000000 87.651778
41.619194 426.000000 87.274011
46.211031 426.000000 86.767310
50.802868 426.000000 86.128995
55.394705 426.000000 85.355579
59.986541 426.000000 84.442673
64.578378 426.000000 83.384845
69.170215 426.000000 82.175444
73.762052 426.000000 80.806355
78.353888 426.000000 79.267673
82.945725 426.000000 77.547265
87.537562 426.000000 75.630144
92.129399 426.000000 73.497602
96.721235 426.000000 71.125913
101.313072 426.000000 68.484395
105.904909 426.000000 65.532328
110.496745 426.000000 62.213808
115.088582 426.000000 58.448559
119.680419 426.000000 54.113898
124.272256 426.000000 49.004507
128.864092 426.000000 42.722935
133.455929 426.000000 34.252047
135.751848 426.000000 23.647655
131.160011 426.000000 38.487491
126.568174 426.000000 45.863721
138.047766 426.000000 13.043262
135.751848 426.000000 2.438869
131.160011 426.000000 -12.400967
126.568174 426.000000 -19.777197
133.455929 426.000000 -8.165523
128.864092 426.000000 -16.636411
124.272256 426.000000 -22.917983
119.680419 426.000000 -28.027374
115.088582 426.000000 -32.362035
110.496745 426.000000 -36.127284
105.904909 426.000000 -39.445804
101.313072 426.000000 -42.397872
96.721235 426.000000 -45.039389
92.129399 426.000000 -47.411078
87.537562 426.000000 -49.543621
82.945725 426.000000 -51.460741
78.353888 426.000000 -53.181149
73.762052 426.000000 -54.719831
69.170215 426.000000 -56.088920
64.578378 426.000000 -57.298321
59.986541 426.000000 -58.356149
55.394705 426.000000 -59.269055
50.802868 426.000000 -60.042471
46.211031 426.000000 -60.680786
41.619194 426.000000 -61.187487
37.027358 426.000000 -61.565254
32.435521 426.000000 -61.816040
27.843684 426.000000 -61.941118
23.251848 426.000000 -61.941118
18.660011 426.000000 -61.816040
14.068174 426.000000 -61.565254
9.476337 426.000000 -61.187487
4.884501 426.000000 -60.680786
0.292664 426.000000 -60.042471
-4.299173 426.000000 -59.269055
-8.891010 426.000000 -58.356149
-13.482846 426.000000 -57.298321
-18.074683 426.000000 -56.088920
-22.666520 426.000000 -54.719831
-27.258357 426.000000 -53.181149
-31.850193 426.000000 -51.460741
-36.442030 426.000000 -49.543621
-41.033867 426.000000 -47.411078
-45.625703 426.000000 -45.039389
-50.217540 426.000000 -42.397872
-54.809377 426.000000 -39.445804
-59.401214 426.000000 -36.127284
-63.993050 426.000000 -32.362035
-68.584887 426.000000 -28.027374
-73.176724 426.000000 -22.917983
-77.768561 426.000000 -16.636411
-82.360397 426.000000 -8.165523
-84.656316 426.000000 2.438869
-80.064479 426.000000 -12.400967
-75.472642 426.000000 -19.777197
-87.840426 431.000000 12.885086
-85.554712 431.000000 23.489478
-80.983283 431.000000 38.329315
-76.411855 431.000000 45.705545
-83.268998 431.000000 34.093871
-78.697569 431.000000 42.564758
-74.126141 431.000000 48.846331
-69.554712 431.000000 53.955722
-64.983283 431.000000 58.290383
-60.411855 431.000000 62.055632
-55.840426 431.000000 65.374152
-51.268998 431.000000 68.326219
-46.697569 431.000000 70.967737
-42.126141 431.000000 73.339426
-37.554712 431.000000 75.471968
-32.983283 431.000000 77.389088
-28.411855 431.000000 79.109497
-23.840426 431.000000 80.648178
-19.268998 431.000000 82.017268
-14.697569 431.000000 83.226669
-10.126141 431.000000 84.284497
-5.554712 431.000000 85.197403
-0.983283 431.000000 85.970819
3.588145 431.000000 86.609134
8.159574 431.000000 87.115835
12.731002 431.000000 87.493602
17.302431 431.000000 87.744387
21.873859 431.000000 87.869466
26.445288 431.000000 87.869466
31.016717 431.000000 87.744387
35.588145 431.000000 87.493602
40.159574 431.000000 87.115835
44.731002 431.000000 86.609134
49.302431 431.000000 85.970819
53.873859 431.000000 85.197403
58.445288 431.000000 84.284497
63.016717 431.000000 83.226669
67.588145 431.000000 82.017268
72.159574 431.000000 80.648178
76.731002 431.000000 79.109497
81.302431 431.000000 77.389088
85.873859 431.000000 75.471968
90.445288 431.000000 73.339426
95.016717 431.000000 70.967737
99.588145 431.000000 68.326219
104.159574 431.000000 65.374152
108.731002 431.000000 62.055632
113.302431 431.000000 58.290383
117.873859 431.000000 53.955722
122.445288 431.000000 48.846331
127.016717 431.000000 42.564758
131.588145 431.000000 34.093871
133.873859 431.000000 23.489478
129.302431 431.000000 38.329315
124.731002 431.000000 45.705545
136.159574 431.000000 12.885086
133.873859 431.000000 2.280693
129.302431 431.000000 -12.559143
124.731002 431.000000 -19.935373
131.588145 431.000000 -8.323700
127.016717 431.000000 -16.794587
122.445288 431.000000 -23.076160
117.873859 431.000000 -28.185551
113.302431 431.000000 -32.520211
108.731002 431.000000 -36.285460
104.159574 431.000000 -39.603980
99.588145 431.000000 -42.556048
95.016717 431.000000 -45.197565
90.445288 431.000000 -47.569254
85.873859 431.000000 -49.701797
81.302431 431.000000 -51.618917
76.731002 431.000000 -53.339325
72.159574 431.000000 -54.878007
67.588145 431.000000 -56.247097
63.016717 431.000000 -57.456498
58.445288 431.000000 -58.514325
53.873859 431.000000 -59.427231
49.302431 431.000000 -60.200647
44.731002 431.000000 -60.838963
40.159574 431.000000 -61.345663
35.588145 431.000000 -61.723430
31.016717 431.000000 -61.974216
26.445288 431.000000 -62.099294
21.873859 431.000000 -62.099294
17.302431 431.000000 -61.974216
12.731002 431.000000 -61.723430
8.159574 431.000000 -61.345663
3.588145 431.000000 -60.838963
-0.983283 431.000000 -60.200647
-5.554712 431.000000 -59.427231
-10.126141 431.000000 -58.514325
-14.697569 431.000000 -57.456498
-19.268998 431.000000 -56.247097
-23.840426 431.000000 -54.878007
-28.411855 431.000000 -53.339325
-32.983283 431.000000 -51.618917
-37.554712 431.000000 -49.701797
-42.126141 431.000000 -47.569254
-46.697569 431.000000 -45.197565
-51.268998 431.000000 -42.556048
-55.840426 431.000000 -39.603980
-60.411855 431.000000 -36.285460
-64.983283 431.000000 -32.520211
-69.554712 431.000000 -28.185551
-74.126141 431.000000 -23.076160
-78.697569 431.000000 -16.794587
-83.268998 431.000000 -8.323700
-85.554712 431.000000 2.280693
-80.983283 431.000000 -12.559143
-76.411855 431.000000 -19.935373
-86.728618 436.000000 12.726910
-84.453108 436.000000 23.331302
-79.902088 436.000000 38.171139
-75.351067 436.000000 45.547368
-82.177598 436.000000 33.935695
-77.626578 436.000000 42.406582
-73.075557 436.000000 48.688155
-68.524537 436.000000 53.797546
-63.973516 436.000000 58.132206
-59.422496 436.000000 61.897456
-54.871476 436.000000 65.215975
-50.320455 436.000000 68.168043
-45.769435 436.000000 70.809560
-41.218414 436.000000 73.181249
-36.667394 436.000000 75.313792
-32.116374 436.000000 77.230912
-27.565353 436.000000 78.951321
-23.014333 436.000000 80.490002
-18.463312 436.000000 81.859092
-13.912292 436.000000 83.068493
-9.361271 436.000000 84.126320
-4.810251 436.000000 85.039227
-0.259231 436.000000 85.812642
4.291790 436.000000 86.450958
8.842810 436.000000 86.957658
13.393831 436.000000 87.335425
17.944851 436.000000 87.586211
22.495871 436.000000 87.711289
27.046892 436.000000 87.711289
31.597912 436.000000 87.586211
36.148933 436.000000 87.335425
40.699953 436.000000 86.957658
45.250973 436.000000 86.450958
49.801994 436.000000 85.812642
54.353014 436.000000 85.039227
58.904035 436.000000 84.126320
63.455055 436.000000 83.068493
68.006075 436.000000 81.859092
72.557096 436.000000 80.490002
77.108116 436.000000 78.951321
81.659137 436.000000 77.230912
86.210157 436.000000 75.313792
90.761178 436.000000 73.181249
95.312198 436.000000 70.809560
99.863218 436.000000 68.168043
104.414239 436.000000 65.215975
108.965259 436.000000 61.897456
113.516280 436.000000 58.132206
118.067300 436.000000 53.797546
122.618320 436.000000 48.688155
127.169341 436.000000 42.406582
131.720361 436.000000 33.935695
133.995871 436.000000 23.331302
129.444851 436.000000 38.171139
124.893831 436.000000 45.547368
136.271382 436.000000 12.726910
133.995871 436.000000 2.122517
129.444851 436.000000 -12.717319
124.893831 436.000000 -20.093549
131.720361 436.000000 -8.481876
127.169341 436.000000 -16.952763
122.618320 436.000000 -23.234336
118.067300 436.000000 -28.343727
113.516280 436.000000 -32.678387
108.965259 436.000000 -36.443637
104.414239 436.000000 -39.762156
99.863218 436.000000 -42.714224
95.312198 436.000000 -45.355741
90.761178 436.000000 -47.727430
86.210157 436.000000 -49.859973
81.659137 436.000000 -51.777093
77.108116 436.000000 -53.497502
72.557096 436.000000 -55.036183
68.006075 436.000000 -56.405273
63.455055 436.000000 -57.614674
58.904035 436.000000 -58.672501
54.353014 436.000000 -59.585408
49.801994 436.000000 -60.358823
45.250973 436.000000 -60.997139
40.699953 436.000000 -61.503839
36.148933 436.000000 -61.881606
31.597912 436.000000 -62.132392
27.046892 436.000000 -62.257470
22.495871 436.000000 -62.257470
17.944851 436.000000 -62.132392
13.393831 436.000000 -61.881606
8.842810 436.000000 -61.503839
4.291790 436.000000 -60.997139
-0.259231 436.000000 -60.358823
-4.810251 436.000000 -59.585408
-9.361271 436.000000 -58.672501
-13.912292 436.000000 -57.614674
-18.463312 436.000000 -56.405273
-23.014333 436.000000 -55.036183
-27.565353 436.000000 -53.497502
-32.116374 436.000000 -51.777093
-36.667394 436.000000 -49.859973
-41.218414 436.000000 -47.727430
-45.769435 436.000000 -45.355741
-50.320455 436.000000 -42.714224
-54.871476 436.000000 -39.762156
-59.422496 436.000000 -36.443637
-63.973516 436.000000 -32.678387
-68.524537 436.000000 -28.343727
-73.075557 436.000000 -23.234336
-77.626578 436.000000 -16.952763
-82.177598 436.000000 -8.481876
-84.453108 436.000000 2.122517
-79.902088 436.000000 -12.717319
-75.351067 436.000000 -20.093549
-86.616811 441.000000 12.568733
-84.361709 441.000000 23.031734
-79.851504 441.000000 37.673706
-75.341300 441.000000 44.951586
-82.106606 441.000000 33.494735
-77.596402 441.000000 41.852677
-73.086198 441.000000 48.050495
-68.575994 441.000000 53.091761
-64.065790 441.000000 57.368626
-59.555586 441.000000 61.083672
-55.045382 441.000000 64.357945
-50.535178 441.000000 67.270652
-46.024974 441.000000 69.876949
-41.514770 441.000000 72.217015
-37.004566 441.000000 74.321124
-32.494362 441.000000 76.212683
-27.984157 441.000000 77.910152
-23.473953 441.000000 79.428318
-18.963749 441.000000 80.779153
-14.453545 441.000000 81.972429
-9.943341 441.000000 83.016152
-5.433137 441.000000 83.916886
-0.922933 441.000000 84.679990
3.587271 441.000000 85.309794
8.097475 441.000000 85.809739
12.607679 441.000000 86.182469
17.117883 441.000000 86.429911
21.628087 441.000000 86.553321
26.138291 441.000000 86.553321
30.648496 441.000000 86.429911
35.158700 441.000000 86.182469
39.668904 441.000000 85.809739
44.179108 441.000000 85.309794
48.689312 441.000000 84.679990
53.199516 441.000000 83.916886
57.709720 441.000000 83.016152
62.219924 441.000000 81.972429
66.730128 441.000000 80.779153
71.240332 441.000000 79.428318
75.750536 441.000000 77.910152
80.260740 441.000000 76.212683
84.770945 441.000000 74.321124
89.281149 441.000000 72.217015
93.791353 441.000000 69.876949
98.301557 441.000000 67.270652
102.811761 441.000000 64.357945
107.321965 441.000000 61.083672
111.832169 441.000000 57.368626
116.342373 441.000000 53.091761
120.852577 441.000000 48.050495
125.362781 441.000000 41.852677
129.872985 441.000000 33.494735
132.128087 441.000000 23.031734
127.617883 441.000000 37.673706
123.107679 441.000000 44.951586
134.383189 441.000000 12.568733
132.128087 441.000000 2.105733
127.617883 441.000000 -12.536239
123.107679 441.000000 -19.814120
129.872985 441.000000 -8.357268
125.362781 441.000000 -16.715210
120.852577 441.000000 -22.913029
116.342373 441.000000 -27.954295
111.832169 441.000000 -32.231160
107.321965 441.000000 -35.946206
102.811761 441.000000 -39.220478
98.301557 441.000000 -42.133185
93.791353 441.000000 -44.739482
89.281149 441.000000 -47.079549
84.770945 441.000000 -49.183657
80.260740 441.000000 -51.075216
75.750536 441.000000 -52.772686
71.240332 441.000000 -54.290852
66.730128 441.000000 -55.641687
62.219924 441.000000 -56.834962
57.709720 441.000000 -57.878686
53.199516 441.000000 -58.779420
48.689312 441.000000 -59.542523
44.179108 441.000000 -60.172328
39.668904 441.000000 -60.672272
35.158700 441.000000 -61.045002
30.648496 441.000000 -61.292444
26.138291 441.000000 -61.415855
21.628087 441.000000 -61.415855
17.117883 441.000000 -61.292444
12.607679 441.000000 -61.045002
8.097475 441.000000 -60.672272
3.587271 441.000000 -60.172328
-0.922933 441.000000 -59.542523
-5.433137 441.000000 -58.779420
-9.943341 441.000000 -57.878686
-14.453545 441.000000 -56.834962
-18.963749 441.000000 -55.641687
-23.473953 441.000000 -54.290852
-27.984157 441.000000 -52.772686
-32.494362 441.000000 -51.075216
-37.004566 441.000000 -49.183657
-41.514770 441.000000 -47.079549
-46.024974 441.000000 -44.739482
-50.535178 441.000000 -42.133185
-55.045382 441.000000 -39.220478
-59.555586 441.000000 -35.946206
-64.065790 441.000000 -32.231160
-68.575994 441.000000 -27.954295
-73.086198 441.000000 -22.913029
-77.596402 441.000000 -16.715210
-82.106606 441.000000 -8.357268
-84.361709 441.000000 2.105733
-79.851504 441.000000 -12.536239
-75.341300 441.000000 -19.814120
-86.505003 446.000000 12.410557
-84.270309 446.000000 22.873558
-79.800921 446.000000 37.515530
-75.331533 446.000000 44.793410
-82.035615 446.000000 33.336559
-77.566227 446.000000 41.694501
-73.096839 446.000000 47.892319
-68.627452 446.000000 52.933585
-64.158064 446.000000 57.210450
-59.688676 446.000000 60.925496
-55.219288 446.000000 64.199769
-50.749901 446.000000 67.112475
-46.280513 446.000000 69.718773
-41.811125 446.000000 72.058839
-37.341737 446.000000 74.162948
-32.872350 446.000000 76.054506
-28.402962 446.000000 77.751976
-23.933574 446.000000 79.270142
-19.464186 446.000000 80.620977
-14.994799 446.000000 81.814253
-10.525411 446.000000 82.857976
-6.056023 446.000000 83.758710
-1.586635 446.000000 84.521814
2.882752 446.000000 85.151618
7.352140 446.000000 85.651563
11.821528 446.000000 86.024293
16.290916 446.000000 86.271735
20.760303 446.000000 86.395145
25.229691 446.000000 86.395145
29.699079 446.000000 86.271735
34.168467 446.000000 86.024293
38.637854 446.000000 85.651563
43.107242 446.000000 85.151618
47.576630 446.000000 84.521814
52.046018 446.000000 83.758710
56.515405 446.000000 82.857976
60.984793 446.000000 81.814253
65.454181 446.000000 80.620977
69.923569 446.000000 79.270142
74.392956 446.000000 77.751976
78.862344 446.000000 76.054506
83.331732 446.000000 74.162948
87.801120 446.000000 72.058839
92.270508 446.000000 69.718773
96.739895 446.000000 67.112475
101.209283 446.000000 64.199769
105.678671 446.000000 60.925496
110.148059 446.000000 57.210450
114.617446 446.000000 52.933585
119.086834 446.000000 47.892319
123.556222 446.000000 41.694501
128.025610 446.000000 33.336559
130.260303 446.000000 22.873558
125.790916 446.000000 37.515530
121.321528 446.000000 44.793410
132.494997 446.000000 12.410557
130.260303 446.000000 1.947556
125.790916 446.000000 -12.694416
121.321528 446.000000 -19.972296
128.025610 446.000000 -8.515445
123.556222 446.000000 -16.873387
119.086834 446.000000 -23.071205
114.617446 446.000000 -28.112471
110.148059 446.000000 -32.389336
105.678671 446.000000 -36.104382
101.209283 446.000000 -39.378655
96.739895 446.000000 -42.291361
92.270508 446.000000 -44.897658
87.801120 446.000000 -47.237725
83.331732 446.000000 -49.341834
78.862344 446.000000 -51.233392
74.392956 446.000000 -52.930862
69.923569 446.000000 -54.449028
65.454181 446.000000 -55.799863
60.984793 446.000000 -56.993139
56.515405 446.000000 -58.036862
52.046018 446.000000 -58.937596
47.576630 446.000000 -59.700699
43.107242 446.000000 -60.330504
38.637854 446.000000 -60.830448
34.168467 446.000000 -61.203179
29.699079 446.000000 -61.450620
25.229691 446.000000 -61.574031
20.760303 446.000000 -61.574031
16.290916 446.000000 -61.450620
11.821528 446.000000 -61.203179
7.352140 446.000000 -60.830448
2.882752 446.000000 -60.330504
-1.586635 446.000000 -59.700699
-6.056023 446.000000 -58.937596
-10.525411 446.000000 -58.036862
-14.994799 446.000000 -56.993139
-19.464186 446.000000 -55.799863
-23.933574 446.000000 -54.449028
-28.402962 446.000000 -52.930862
-32.872350 446.000000 -51.233392
-37.341737 446.000000 -49.341834
-41.811125 446.000000 -47.237725
-46.280513 446.000000 -44.897658
-50.749901 446.000000 -42.291361
-55.219288 446.000000 -39.378655
-59.688676 446.000000 -36.104382
-64.158064 446.000000 -32.389336
-68.627452 446.000000 -28.112471
-73.096839 446.000000 -23.071205
-77.566227 446.000000 -16.873387
-82.035615 446.000000 -8.515445
-84.270309 446.000000 1.947556
-79.800921 446.000000 -12.694416
-75.331533 446.000000 -19.972296
-86.393195 451.000000 12.252381
-84.168705 451.000000 22.573990
-79.719725 451.000000 37.018097
-75.270746 451.000000 44.197628
-81.944215 451.000000 32.895599
-77.495236 451.000000 41.140596
-73.046256 451.000000 47.254660
-68.597276 451.000000 52.227800
-64.148297 451.000000 56.446870
-59.699317 451.000000 60.111712
-55.250338 451.000000 63.341738
-50.801358 451.000000 66.215084
-46.352379 451.000000 68.786161
-41.903399 451.000000 71.094605
-37.454419 451.000000 73.170280
-33.005440 451.000000 75.036277
-28.556460 451.000000 76.710808
-24.107481 451.000000 78.208458
-19.658501 451.000000 79.541038
-15.209521 451.000000 80.718189
-10.760542 451.000000 81.747808
-6.311562 451.000000 82.636370
-1.862583 451.000000 83.389161
2.586397 451.000000 84.010455
7.035377 451.000000 84.503643
11.484356 451.000000 84.871336
15.933336 451.000000 85.115434
20.382315 451.000000 85.237177
24.831295 451.000000 85.237177
29.280275 451.000000 85.115434
33.729254 451.000000 84.871336
38.178234 451.000000 84.503643
42.627213 451.000000 84.010455
47.076193 451.000000 83.389161
51.525173 451.000000 82.636370
55.974152 451.000000 81.747808
60.423132 451.000000 80.718189
64.872111 451.000000 79.541038
69.321091 451.000000 78.208458
73.770070 451.000000 76.710808
78.219050 451.000000 75.036277
82.668030 451.000000 73.170280
87.117009 451.000000 71.094605
91.565989 451.000000 68.786161
96.014968 451.000000 66.215084
100.463948 451.000000 63.341738
104.912928 451.000000 60.111712
109.361907 451.000000 56.446870
113.810887 451.000000 52.227800
118.259866 451.000000 47.254660
122.708846 451.000000 41.140596
127.157826 451.000000 32.895599
129.382315 451.000000 22.573990
124.933336 451.000000 37.018097
120.484356 451.000000 44.197628
131.606805 451.000000 12.252381
129.382315 451.000000 1.930772
124.933336 451.000000 -12.513335
120.484356 451.000000 -19.692866
127.157826 451.000000 -8.390837
122.708846 451.000000 -16.635834
118.259866 451.000000 -22.749898
113.810887 451.000000 -27.723038
109.361907 451.000000 -31.942108
104.912928 451.000000 -35.606951
100.463948 451.000000 -38.836977
96.014968 451.000000 -41.710322
91.565989 451.000000 -44.281399
87.117009 451.000000 -46.589843
82.668030 451.000000 -48.665518
78.219050 451.000000 -50.531515
73.770070 451.000000 -52.206046
69.321091 451.000000 -53.703696
64.872111 451.000000 -55.036277
60.423132 451.000000 -56.213427
55.974152 451.000000 -57.243046
51.525173 451.000000 -58.131608
47.076193 451.000000 -58.884399
42.627213 451.000000 -59.505693
38.178234 451.000000 -59.998881
33.729254 451.000000 -60.366575
29.280275 451.000000 -60.610673
24.831295 451.000000 -60.732416
20.382315 451.000000 -60.732416
15.933336 451.000000 -60.610673
11.484356 451.000000 -60.366575
7.035377 451.000000 -59.998881
2.586397 451.000000 -59.505693
-1.862583 451.000000 -58.884399
-6.311562 451.000000 -58.131608
-10.760542 451.000000 -57.243046
-15.209521 451.000000 -56.213427
-19.658501 451.000000 -55.036277
-24.107481 451.000000 -53.703696
-28.556460 451.000000 -52.206046
-33.005440 451.000000 -50.531515
-37.454419 451.000000 -48.665518
-41.903399 451.000000 -46.589843
-46.352379 451.000000 -44.281399
-50.801358 451.000000 -41.710322
-55.250338 451.000000 -38.836977
-59.699317 451.000000 -35.606951
-64.148297 451.000000 -31.942108
-68.597276 451.000000 -27.723038
-73.046256 451.000000 -22.749898
-77.495236 451.000000 -16.635834
-81.944215 451.000000 -8.390837
-84.168705 451.000000 1.930772
-79.719725 451.000000 -12.513335
-75.270746 451.000000 -19.692866
-85.281387 456.000000 11.594205
-83.087509 456.000000 21.845118
-78.699754 456.000000 36.190293
-74.311999 456.000000 43.320648
-80.893632 456.000000 32.096031
-76.505877 456.000000 40.284555
-72.118122 456.000000 46.356742
-67.730367 456.000000 51.295820
-63.342611 456.000000 55.485992
-58.954856 456.000000 59.125733
-54.567101 456.000000 62.333635
-50.179346 456.000000 65.187300
-45.791591 456.000000 67.740767
-41.403836 456.000000 70.033400
-37.016081 456.000000 72.094858
-32.628326 456.000000 73.948074
-28.240571 456.000000 75.611135
-23.852816 456.000000 77.098528
-19.465060 456.000000 78.421981
-15.077305 456.000000 79.591069
-10.689550 456.000000 80.613635
-6.301795 456.000000 81.496111
-1.914040 456.000000 82.243747
2.473715 456.000000 82.860785
6.861470 456.000000 83.350595
11.249225 456.000000 83.715770
15.636980 456.000000 83.958196
20.024735 456.000000 84.079105
24.412491 456.000000 84.079105
28.800246 456.000000 83.958196
33.188001 456.000000 83.715770
37.575756 456.000000 83.350595
41.963511 456.000000 82.860785
46.351266 456.000000 82.243747
50.739021 456.000000 81.496111
55.126776 456.000000 80.613635
59.514531 456.000000 79.591069
