ply
format ascii 1.0
element vertex 1507
property float x
property float y
property float z
element face 0
property list uchar int vertex_index
end_header
-21.311152 493.000000 73.265746
-6.025437 493.000000 77.047425
9.260277 493.000000 79.215990
24.545991 493.000000 79.923701
39.831705 493.000000 79.215990
55.117420 493.000000 77.047425
70.403134 493.000000 73.265746
85.688848 493.000000 67.548675
100.974563 493.000000 59.213641
116.260277 493.000000 46.464135
131.545991 493.000000 10.923701
131.545991 493.000000 10.923701
116.260277 493.000000 -24.616733
100.974563 493.000000 -37.366240
85.688848 493.000000 -45.701274
70.403134 493.000000 -51.418345
55.117420 493.000000 -55.200024
39.831705 493.000000 -57.368588
24.545991 493.000000 -58.076299
9.260277 493.000000 -57.368588
-6.025437 493.000000 -55.200024
-21.311152 493.000000 -51.418345
-36.596866 493.000000 -45.701274
-51.882580 493.000000 -37.366240
-67.168295 493.000000 -24.616733
-82.454009 493.000000 10.923701
-82.431647 494.000000 10.892065
-67.145933 494.000000 46.432499
-51.860219 494.000000 59.182006
-36.574504 494.000000 67.517040
-21.288790 494.000000 73.234111
-6.003076 494.000000 77.015790
9.282638 494.000000 79.184354
24.568353 494.000000 79.892065
39.854067 494.000000 79.184354
55.139781 494.000000 77.015790
70.425496 494.000000 73.234111
85.711210 494.000000 67.517040
100.996924 494.000000 59.182006
116.282638 494.000000 46.432499
131.568353 494.000000 10.892065
131.568353 494.000000 10.892065
116.282638 494.000000 -24.648369
100.996924 494.000000 -37.397875
85.711210 494.000000 -45.732909
70.425496 494.000000 -51.449980
55.139781 494.000000 -55.231659
39.854067 494.000000 -57.400224
24.568353 494.000000 -58.107935
9.282638 494.000000 -57.400224
-6.003076 494.000000 -55.231659
-21.288790 494.000000 -51.449980
-36.574504 494.000000 -45.732909
-51.860219 494.000000 -37.397875
-67.145933 494.000000 -24.648369
-82.431647 494.000000 10.892065
-81.409286 495.000000 10.360430
-66.195000 495.000000 45.643325
-50.980714 495.000000 58.300444
-35.766429 495.000000 66.575079
-20.552143 495.000000 72.250722
-5.337857 495.000000 76.004997
9.876429 495.000000 78.157848
25.090714 495.000000 78.860430
40.305000 495.000000 78.157848
55.519286 495.000000 76.004997
70.733571 495.000000 72.250722
85.947857 495.000000 66.575079
101.162143 495.000000 58.300444
116.376429 495.000000 45.643325
131.590714 495.000000 10.360430
131.590714 495.000000 10.360430
116.376429 495.000000 -24.922464
101.162143 495.000000 -37.579583
85.947857 495.000000 -45.854219
70.733571 495.000000 -51.529861
55.519286 495.000000 -55.284137
40.305000 495.000000 -57.436987
25.090714 495.000000 -58.139570
9.876429 495.000000 -57.436987
-5.337857 495.000000 -55.284137
-20.552143 495.000000 -51.529861
-35.766429 495.000000 -45.854219
-50.980714 495.000000 -37.579583
-66.195000 495.000000 -24.922464
-81.409286 495.000000 10.360430
-81.386924 496.000000 10.328795
-66.244067 496.000000 45.611690
-51.101210 496.000000 58.268808
-35.958353 496.000000 66.543444
-20.815496 496.000000 72.219086
-5.672638 496.000000 75.973362
9.470219 496.000000 78.126212
24.613076 496.000000 78.828795
39.755933 496.000000 78.126212
54.898790 496.000000 75.973362
70.041647 496.000000 72.219086
85.184504 496.000000 66.543444
100.327362 496.000000 58.268808
115.470219 496.000000 45.611690
130.613076 496.000000 10.328795
130.613076 496.000000 10.328795
115.470219 496.000000 -24.954100
100.327362 496.000000 -37.611219
85.184504 496.000000 -45.885854
70.041647 496.000000 -51.561496
54.898790 496.000000 -55.315772
39.755933 496.000000 -57.468622
24.613076 496.000000 -58.171205
9.470219 496.000000 -57.468622
-5.672638 496.000000 -55.315772
-20.815496 496.000000 -51.561496
-35.958353 496.000000 -45.885854
-51.101210 496.000000 -37.611219
-66.244067 496.000000 -24.954100
-81.386924 496.000000 10.328795
-81.364563 497.000000 10.297160
-66.221705 497.000000 45.580054
-51.078848 497.000000 58.237173
-35.935991 497.000000 66.511808
-20.793134 497.000000 72.187451
-5.650277 497.000000 75.941727
9.492580 497.000000 78.094577
24.635437 497.000000 78.797160
39.778295 497.000000 78.094577
54.921152 497.000000 75.941727
70.064009 497.000000 72.187451
85.206866 497.000000 66.511808
100.349723 497.000000 58.237173
115.492580 497.000000 45.580054
130.635437 497.000000 10.297160
130.635437 497.000000 10.297160
115.492580 497.000000 -24.985735
100.349723 497.000000 -37.642854
85.206866 497.000000 -45.917489
70.064009 497.000000 -51.593132
54.921152 497.000000 -55.347407
39.778295 497.000000 -57.500258
24.635437 497.000000 -58.202840
9.492580 497.000000 -57.500258
-5.650277 497.000000 -55.347407
-20.793134 497.000000 -51.593132
-35.935991 497.000000 -45.917489
-51.078848 497.000000 -37.642854
-66.221705 497.000000 -24.985735
-81.364563 497.000000 10.297160
-81.342201 498.000000 10.265524
-66.270772 498.000000 45.548419
-51.199344 498.000000 58.205538
-36.127915 498.000000 66.480173
-21.056487 498.000000 72.155816
-5.985058 498.000000 75.910092
9.086370 498.000000 78.062942
24.157799 498.000000 78.765524
39.229228 498.000000 78.062942
54.300656 498.000000 75.910092
69.372085 498.000000 72.155816
84.443513 498.000000 66.480173
99.514942 498.000000 58.205538
114.586370 498.000000 45.548419
129.657799 498.000000 10.265524
129.657799 498.000000 10.265524
114.586370 498.000000 -25.017370
99.514942 498.000000 -37.674489
84.443513 498.000000 -45.949124
69.372085 498.000000 -51.624767
54.300656 498.000000 -55.379043
39.229228 498.000000 -57.531893
24.157799 498.000000 -58.234476
9.086370 498.000000 -57.531893
-5.985058 498.000000 -55.379043
-21.056487 498.000000 -51.624767
-36.127915 498.000000 -45.949124
-51.199344 498.000000 -37.674489
-66.270772 498.000000 -25.017370
-81.342201 498.000000 10.265524
-81.319839 499.000000 10.233889
-66.319839 499.000000 45.516784
-51.319839 499.000000 58.173903
-36.319839 499.000000 66.448538
-21.319839 499.000000 72.124181
-6.319839 499.000000 75.878456
8.680161 499.000000 78.031307
23.680161 499.000000 78.733889
38.680161 499.000000 78.031307
53.680161 499.000000 75.878456
68.680161 499.000000 72.124181
83.680161 499.000000 66.448538
98.680161 499.000000 58.173903
113.680161 499.000000 45.516784
128.680161 499.000000 10.233889
128.680161 499.000000 10.233889
113.680161 499.000000 -25.049005
98.680161 499.000000 -37.706124
83.680161 499.000000 -45.980760
68.680161 499.000000 -51.656402
53.680161 499.000000 -55.410678
38.680161 499.000000 -57.563528
23.680161 499.000000 -58.266111
8.680161 499.000000 -57.563528
-6.319839 499.000000 -55.410678
-21.319839 499.000000 -51.656402
-36.319839 499.000000 -45.980760
-51.319839 499.000000 -37.706124
-66.319839 499.000000 -25.049005
-81.319839 499.000000 10.233889
-81.297478 500.000000 10.202254
-66.226049 500.000000 45.485149
-51.154621 500.000000 58.142268
-36.083192 500.000000 66.416903
-21.011764 500.000000 72.092545
-5.940335 500.000000 75.846821
9.131094 500.000000 77.999671
24.202522 500.000000 78.702254
39.273951 500.000000 77.999671
54.345379 500.000000 75.846821
69.416808 500.000000 72.092545
84.488236 500.000000 66.416903
99.559665 500.000000 58.142268
114.631094 500.000000 45.485149
129.702522 500.000000 10.202254
129.702522 500.000000 10.202254
114.631094 500.000000 -25.080641
99.559665 500.000000 -37.737760
84.488236 500.000000 -46.012395
69.416808 500.000000 -51.688037
54.345379 500.000000 -55.442313
39.273951 500.000000 -57.595163
24.202522 500.000000 -58.297746
9.131094 500.000000 -57.595163
-5.940335 500.000000 -55.442313
-21.011764 500.000000 -51.688037
-36.083192 500.000000 -46.012395
-51.154621 500.000000 -37.737760
-66.226049 500.000000 -25.080641
-81.297478 500.000000 10.202254
-81.275116 501.000000 9.670619
-66.203688 501.000000 44.695974
-51.132259 501.000000 57.260705
-36.060831 501.000000 65.474942
-20.989402 501.000000 71.109156
-5.917973 501.000000 74.836028
9.153455 501.000000 76.973164
24.224884 501.000000 77.670619
39.296312 501.000000 76.973164
54.367741 501.000000 74.836028
69.439169 501.000000 71.109156
84.510598 501.000000 65.474942
99.582027 501.000000 57.260705
114.653455 501.000000 44.695974
129.724884 501.000000 9.670619
129.724884 501.000000 9.670619
114.653455 501.000000 -25.354737
99.582027 501.000000 -37.919468
84.510598 501.000000 -46.133704
69.439169 501.000000 -51.767919
54.367741 501.000000 -55.494791
39.296312 501.000000 -57.631927
24.224884 501.000000 -58.329381
9.153455 501.000000 -57.631927
-5.917973 501.000000 -55.494791
-20.989402 501.000000 -51.767919
-36.060831 501.000000 -46.133704
-51.132259 501.000000 -37.919468
-66.203688 501.000000 -25.354737
-81.275116 501.000000 9.670619
-81.252755 502.000000 9.638983
-66.252755 502.000000 44.664339
-51.252755 502.000000 57.229070
-36.252755 502.000000 65.443306
-21.252755 502.000000 71.077521
-6.252755 502.000000 74.804393
8.747245 502.000000 76.941529
23.747245 502.000000 77.638983
38.747245 502.000000 76.941529
53.747245 502.000000 74.804393
68.747245 502.000000 71.077521
83.747245 502.000000 65.443306
98.747245 502.000000 57.229070
113.747245 502.000000 44.664339
128.747245 502.000000 9.638983
128.747245 502.000000 9.638983
113.747245 502.000000 -25.386372
98.747245 502.000000 -37.951103
83.747245 502.000000 -46.165339
68.747245 502.000000 -51.799554
53.747245 502.000000 -55.526426
38.747245 502.000000 -57.663562
23.747245 502.000000 -58.361017
8.747245 502.000000 -57.663562
-6.252755 502.000000 -55.526426
-21.252755 502.000000 -51.799554
-36.252755 502.000000 -46.165339
-51.252755 502.000000 -37.951103
-66.252755 502.000000 -25.386372
-81.252755 502.000000 9.638983
-81.230393 503.000000 9.607348
-66.230393 503.000000 44.632703
-51.230393 503.000000 57.197435
-36.230393 503.000000 65.411671
-21.230393 503.000000 71.045886
-6.230393 503.000000 74.772758
8.769607 503.000000 76.909894
23.769607 503.000000 77.607348
38.769607 503.000000 76.909894
53.769607 503.000000 74.772758
68.769607 503.000000 71.045886
83.769607 503.000000 65.411671
98.769607 503.000000 57.197435
113.769607 503.000000 44.632703
128.769607 503.000000 9.607348
128.769607 503.000000 9.607348
113.769607 503.000000 -25.418007
98.769607 503.000000 -37.982738
83.769607 503.000000 -46.196975
68.769607 503.000000 -51.831189
53.769607 503.000000 -55.558061
38.769607 503.000000 -57.695197
23.769607 503.000000 -58.392652
8.769607 503.000000 -57.695197
-6.230393 503.000000 -55.558061
-21.230393 503.000000 -51.831189
-36.230393 503.000000 -46.196975
-51.230393 503.000000 -37.982738
-66.230393 503.000000 -25.418007
-81.230393 503.000000 9.607348
-81.208032 504.000000 9.575713
-66.279460 504.000000 44.601068
-51.350889 504.000000 57.165799
-36.422317 504.000000 65.380036
-21.493746 504.000000 71.014250
-6.565174 504.000000 74.741123
8.363397 504.000000 76.878259
23.291968 504.000000 77.575713
38.220540 504.000000 76.878259
53.149111 504.000000 74.741123
68.077683 504.000000 71.014250
83.006254 504.000000 65.380036
97.934826 504.000000 57.165799
112.863397 504.000000 44.601068
127.791968 504.000000 9.575713
127.791968 504.000000 9.575713
112.863397 504.000000 -25.449642
97.934826 504.000000 -38.014373
83.006254 504.000000 -46.228610
68.077683 504.000000 -51.862824
53.149111 504.000000 -55.589697
38.220540 504.000000 -57.726833
23.291968 504.000000 -58.424287
8.363397 504.000000 -57.726833
-6.565174 504.000000 -55.589697
-21.493746 504.000000 -51.862824
-36.422317 504.000000 -46.228610
-51.350889 504.000000 -38.014373
-66.279460 504.000000 -25.449642
-81.208032 504.000000 9.575713
-81.185670 505.000000 10.044078
-66.257099 505.000000 44.811894
-51.328527 505.000000 57.284237
-36.399956 505.000000 65.438075
-21.471384 505.000000 71.030861
-6.542813 505.000000 74.730330
8.385759 505.000000 76.851752
23.314330 505.000000 77.544078
38.242901 505.000000 76.851752
53.171473 505.000000 74.730330
68.100044 505.000000 71.030861
83.028616 505.000000 65.438075
97.957187 505.000000 57.284237
112.885759 505.000000 44.811894
127.814330 505.000000 10.044078
127.814330 505.000000 10.044078
112.885759 505.000000 -24.723738
97.957187 505.000000 -37.196082
83.028616 505.000000 -45.349919
68.100044 505.000000 -50.942706
53.171473 505.000000 -54.642174
38.242901 505.000000 -56.763596
23.314330 505.000000 -57.455922
8.385759 505.000000 -56.763596
-6.542813 505.000000 -54.642174
-21.471384 505.000000 -50.942706
-36.399956 505.000000 -45.349919
-51.328527 505.000000 -37.196082
-66.257099 505.000000 -24.723738
-81.185670 505.000000 10.044078
-81.163308 506.000000 10.012443
-66.234737 506.000000 44.780258
-51.306166 506.000000 57.252602
-36.377594 506.000000 65.406439
-21.449023 506.000000 70.999226
-6.520451 506.000000 74.698695
8.408120 506.000000 76.820117
23.336692 506.000000 77.512443
38.265263 506.000000 76.820117
53.193834 506.000000 74.698695
68.122406 506.000000 70.999226
83.050977 506.000000 65.406439
97.979549 506.000000 57.252602
112.908120 506.000000 44.780258
127.836692 506.000000 10.012443
127.836692 506.000000 10.012443
112.908120 506.000000 -24.755373
97.979549 506.000000 -37.227717
83.050977 506.000000 -45.381554
68.122406 506.000000 -50.974341
53.193834 506.000000 -54.673810
38.265263 506.000000 -56.795231
23.336692 506.000000 -57.487557
8.408120 506.000000 -56.795231
-6.520451 506.000000 -54.673810
-21.449023 506.000000 -50.974341
-36.377594 506.000000 -45.381554
-51.306166 506.000000 -37.227717
-66.234737 506.000000 -24.755373
-81.163308 506.000000 10.012443
-80.140947 507.000000 9.480807
-65.355233 507.000000 43.991084
-50.569518 507.000000 56.371039
-35.783804 507.000000 64.464478
-20.998090 507.000000 70.015837
-6.212375 507.000000 73.687902
8.573339 507.000000 75.793610
23.359053 507.000000 76.480807
38.144767 507.000000 75.793610
52.930482 507.000000 73.687902
67.716196 507.000000 70.015837
82.501910 507.000000 64.464478
97.287625 507.000000 56.371039
112.073339 507.000000 43.991084
126.859053 507.000000 9.480807
126.859053 507.000000 9.480807
112.073339 507.000000 -25.029469
97.287625 507.000000 -37.409425
82.501910 507.000000 -45.502864
67.716196 507.000000 -51.054222
52.930482 507.000000 -54.726288
38.144767 507.000000 -56.831995
23.359053 507.000000 -57.519193
8.573339 507.000000 -56.831995
-6.212375 507.000000 -54.726288
-20.998090 507.000000 -51.054222
-35.783804 507.000000 -45.502864
-50.569518 507.000000 -37.409425
-65.355233 507.000000 -25.029469
-80.140947 507.000000 9.480807
-80.118585 508.000000 9.449172
-65.332871 508.000000 43.959449
-50.547157 508.000000 56.339404
-35.761442 508.000000 64.432843
-20.975728 508.000000 69.984202
-6.190014 508.000000 73.656267
8.595700 508.000000 75.761974
23.381415 508.000000 76.449172
38.167129 508.000000 75.761974
52.952843 508.000000 73.656267
67.738558 508.000000 69.984202
82.524272 508.000000 64.432843
97.309986 508.000000 56.339404
112.095700 508.000000 43.959449
126.881415 508.000000 9.449172
126.881415 508.000000 9.449172
112.095700 508.000000 -25.061104
97.309986 508.000000 -37.441060
82.524272 508.000000 -45.534499
67.738558 508.000000 -51.085857
52.952843 508.000000 -54.757923
38.167129 508.000000 -56.863630
23.381415 508.000000 -57.550828
8.595700 508.000000 -56.863630
-6.190014 508.000000 -54.757923
-20.975728 508.000000 -51.085857
-35.761442 508.000000 -45.534499
-50.547157 508.000000 -37.441060
-65.332871 508.000000 -25.061104
-80.118585 508.000000 9.449172
-80.096224 509.000000 9.417537
-65.310509 509.000000 43.927813
-50.524795 509.000000 56.307769
-35.739081 509.000000 64.401208
-20.953367 509.000000 69.952566
-6.167652 509.000000 73.624632
8.618062 509.000000 75.730339
23.403776 509.000000 76.417537
38.189491 509.000000 75.730339
52.975205 509.000000 73.624632
67.760919 509.000000 69.952566
82.546633 509.000000 64.401208
97.332348 509.000000 56.307769
112.118062 509.000000 43.927813
126.903776 509.000000 9.417537
126.903776 509.000000 9.417537
112.118062 509.000000 -25.092740
97.332348 509.000000 -37.472695
82.546633 509.000000 -45.566134
67.760919 509.000000 -51.117493
52.975205 509.000000 -54.789558
38.189491 509.000000 -56.895266
23.403776 509.000000 -57.582463
8.618062 509.000000 -56.895266
-6.167652 509.000000 -54.789558
-20.953367 509.000000 -51.117493
-35.739081 509.000000 -45.566134
-50.524795 509.000000 -37.472695
-65.310509 509.000000 -25.092740
-80.096224 509.000000 9.417537
-80.073862 510.000000 9.385902
-65.288148 510.000000 43.896178
-50.502434 510.000000 56.276134
-35.716719 510.000000 64.369573
-20.931005 510.000000 69.920931
-6.145291 510.000000 73.592996
8.640424 510.000000 75.698704
23.426138 510.000000 76.385902
38.211852 510.000000 75.698704
52.997566 510.000000 73.592996
67.783281 510.000000 69.920931
82.568995 510.000000 64.369573
97.354709 510.000000 56.276134
112.140424 510.000000 43.896178
126.926138 510.000000 9.385902
126.926138 510.000000 9.385902
112.140424 510.000000 -25.124375
97.354709 510.000000 -37.504331
82.568995 510.000000 -45.597770
67.783281 510.000000 -51.149128
52.997566 510.000000 -54.821193
38.211852 510.000000 -56.926901
23.426138 510.000000 -57.614098
8.640424 510.000000 -56.926901
-6.145291 510.000000 -54.821193
-20.931005 510.000000 -51.149128
-35.716719 510.000000 -45.597770
-50.502434 510.000000 -37.504331
-65.288148 510.000000 -25.124375
-80.073862 510.000000 9.385902
-80.051501 511.000000 9.354266
-65.265786 511.000000 43.864543
-50.480072 511.000000 56.244499
-35.694358 511.000000 64.337937
-20.908643 511.000000 69.889296
-6.122929 511.000000 73.561361
8.662785 511.000000 75.667069
23.448499 511.000000 76.354266
38.234214 511.000000 75.667069
53.019928 511.000000 73.561361
67.805642 511.000000 69.889296
82.591357 511.000000 64.337937
97.377071 511.000000 56.244499
112.162785 511.000000 43.864543
126.948499 511.000000 9.354266
126.948499 511.000000 9.354266
112.162785 511.000000 -25.156010
97.377071 511.000000 -37.535966
82.591357 511.000000 -45.629405
67.805642 511.000000 -51.180763
53.019928 511.000000 -54.852828
38.234214 511.000000 -56.958536
23.448499 511.000000 -57.645734
8.662785 511.000000 -56.958536
-6.122929 511.000000 -54.852828
-20.908643 511.000000 -51.180763
-35.694358 511.000000 -45.629405
-50.480072 511.000000 -37.535966
-65.265786 511.000000 -25.156010
-80.051501 511.000000 9.354266
-81.029139 512.000000 8.822631
-66.171996 512.000000 43.075368
-51.314853 512.000000 55.362936
-36.457710 512.000000 63.395976
-21.600568 512.000000 68.905907
-6.743425 512.000000 72.550568
8.113718 512.000000 74.640562
22.970861 512.000000 75.322631
37.828004 512.000000 74.640562
52.685147 512.000000 72.550568
67.542290 512.000000 68.905907
82.399432 512.000000 63.395976
97.256575 512.000000 55.362936
112.113718 512.000000 43.075368
126.970861 512.000000 8.822631
126.970861 512.000000 8.822631
112.113718 512.000000 -25.430106
97.256575 512.000000 -37.717674
82.399432 512.000000 -45.750714
67.542290 512.000000 -51.260644
52.685147 512.000000 -54.905306
37.828004 512.000000 -56.995300
22.970861 512.000000 -57.677369
8.113718 512.000000 -56.995300
-6.743425 512.000000 -54.905306
-21.600568 512.000000 -51.260644
-36.457710 512.000000 -45.750714
-51.314853 512.000000 -37.717674
-66.171996 512.000000 -25.430106
-81.029139 512.000000 8.822631
-80.006777 513.000000 8.790996
-65.221063 513.000000 43.043733
-50.435349 513.000000 55.331301
-35.649635 513.000000 63.364341
-20.863920 513.000000 68.874271
-6.078206 513.000000 72.518933
8.707508 513.000000 74.608926
23.493223 513.000000 75.290996
38.278937 513.000000 74.608926
53.064651 513.000000 72.518933
67.850365 513.000000 68.874271
82.636080 513.000000 63.364341
97.421794 513.000000 55.331301
112.207508 513.000000 43.043733
126.993223 513.000000 8.790996
126.993223 513.000000 8.790996
112.207508 513.000000 -25.461741
97.421794 513.000000 -37.749309
82.636080 513.000000 -45.782349
67.850365 513.000000 -51.292280
53.064651 513.000000 -54.936942
38.278937 513.000000 -57.026935
23.493223 513.000000 -57.709004
8.707508 513.000000 -57.026935
-6.078206 513.000000 -54.936942
-20.863920 513.000000 -51.292280
-35.649635 513.000000 -45.782349
-50.435349 513.000000 -37.749309
-65.221063 513.000000 -25.461741
-80.006777 513.000000 8.790996
-79.984416 514.000000 8.759361
-65.198702 514.000000 43.012098
-50.412987 514.000000 55.299666
-35.627273 514.000000 63.332706
-20.841559 514.000000 68.842636
-6.055844 514.000000 72.487298
8.729870 514.000000 74.577291
23.515584 514.000000 75.259361
38.301298 514.000000 74.577291
53.087013 514.000000 72.487298
67.872727 514.000000 68.842636
82.658441 514.000000 63.332706
97.444156 514.000000 55.299666
112.229870 514.000000 43.012098
127.015584 514.000000 8.759361
127.015584 514.000000 8.759361
112.229870 514.000000 -25.493377
97.444156 514.000000 -37.780945
82.658441 514.000000 -45.813985
67.872727 514.000000 -51.323915
53.087013 514.000000 -54.968577
38.301298 514.000000 -57.058570
23.515584 514.000000 -57.740639
8.729870 514.000000 -57.058570
-6.055844 514.000000 -54.968577
-20.841559 514.000000 -51.323915
-35.627273 514.000000 -45.813985
-50.412987 514.000000 -37.780945
-65.198702 514.000000 -25.493377
-79.984416 514.000000 8.759361
-79.962054 515.000000 9.227725
-65.176340 515.000000 43.222923
-50.390626 515.000000 55.418103
-35.604911 515.000000 63.390745
-20.819197 515.000000 68.859247
-6.033483 515.000000 72.476505
8.752231 515.000000 74.550784
23.537946 515.000000 75.227725
38.323660 515.000000 74.550784
53.109374 515.000000 72.476505
67.895089 515.000000 68.859247
82.680803 515.000000 63.390745
97.466517 515.000000 55.418103
112.252231 515.000000 43.222923
127.037946 515.000000 9.227725
127.037946 515.000000 9.227725
112.252231 515.000000 -24.767472
97.466517 515.000000 -36.962653
82.680803 515.000000 -44.935294
67.895089 515.000000 -50.403796
53.109374 515.000000 -54.021055
38.323660 515.000000 -56.095334
23.537946 515.000000 -56.772275
8.752231 515.000000 -56.095334
-6.033483 515.000000 -54.021055
-20.819197 515.000000 -50.403796
-35.604911 515.000000 -44.935294
-50.390626 515.000000 -36.962653
-65.176340 515.000000 -24.767472
-79.962054 515.000000 9.227725
-79.939693 516.000000 9.696090
-65.153978 516.000000 43.948827
-50.368264 516.000000 56.236395
-35.582550 516.000000 64.269435
-20.796836 516.000000 69.779366
-6.011121 516.000000 73.424027
8.774593 516.000000 75.514021
23.560307 516.000000 76.196090
38.346022 516.000000 75.514021
53.131736 516.000000 73.424027
67.917450 516.000000 69.779366
82.703164 516.000000 64.269435
97.488879 516.000000 56.236395
112.274593 516.000000 43.948827
127.060307 516.000000 9.696090
127.060307 516.000000 9.696090
112.274593 516.000000 -24.556647
97.488879 516.000000 -36.844215
82.703164 516.000000 -44.877255
67.917450 516.000000 -50.387185
53.131736 516.000000 -54.031847
38.346022 516.000000 -56.121841
23.560307 516.000000 -56.803910
8.774593 516.000000 -56.121841
-6.011121 516.000000 -54.031847
-20.796836 516.000000 -50.387185
-35.582550 516.000000 -44.877255
-50.368264 516.000000 -36.844215
-65.153978 516.000000 -24.556647
-79.939693 516.000000 9.696090
-79.917331 517.000000 9.164455
-65.203045 517.000000 43.159653
-50.488760 517.000000 55.354833
-35.774474 517.000000 63.327474
-21.060188 517.000000 68.795976
-6.345903 517.000000 72.413235
8.368383 517.000000 74.487514
23.082669 517.000000 75.164455
37.796955 517.000000 74.487514
52.511240 517.000000 72.413235
67.225526 517.000000 68.795976
81.939812 517.000000 63.327474
96.654097 517.000000 55.354833
111.368383 517.000000 43.159653
126.082669 517.000000 9.164455
126.082669 517.000000 9.164455
111.368383 517.000000 -24.830743
96.654097 517.000000 -37.025923
81.939812 517.000000 -44.998564
67.225526 517.000000 -50.467067
52.511240 517.000000 -54.084325
37.796955 517.000000 -56.158604
23.082669 517.000000 -56.835545
8.368383 517.000000 -56.158604
-6.345903 517.000000 -54.084325
-21.060188 517.000000 -50.467067
-35.774474 517.000000 -44.998564
-50.488760 517.000000 -37.025923
-65.203045 517.000000 -24.830743
-79.917331 517.000000 9.164455
-79.894970 518.000000 9.632820
-65.180684 518.000000 43.370478
-50.466398 518.000000 55.473270
-35.752112 518.000000 63.385513
-21.037827 518.000000 68.812587
-6.323541 518.000000 72.402442
8.390745 518.000000 74.461007
23.105030 518.000000 75.132820
37.819316 518.000000 74.461007
52.533602 518.000000 72.402442
67.247888 518.000000 68.812587
81.962173 518.000000 63.385513
96.676459 518.000000 55.473270
111.390745 518.000000 43.370478
126.105030 518.000000 9.632820
126.105030 518.000000 9.632820
111.390745 518.000000 -24.104839
96.676459 518.000000 -36.207631
81.962173 518.000000 -44.119874
67.247888 518.000000 -49.546948
52.533602 518.000000 -53.136803
37.819316 518.000000 -55.195368
23.105030 518.000000 -55.867180
8.390745 518.000000 -55.195368
-6.323541 518.000000 -53.136803
-21.037827 518.000000 -49.546948
-35.752112 518.000000 -44.119874
-50.466398 518.000000 -36.207631
-65.180684 518.000000 -24.104839
-79.894970 518.000000 9.632820
-79.872608 519.000000 9.601184
-65.158322 519.000000 43.338843
-50.444037 519.000000 55.441635
-35.729751 519.000000 63.353878
-21.015465 519.000000 68.780952
-6.301179 519.000000 72.370807
8.413106 519.000000 74.429372
23.127392 519.000000 75.101184
37.841678 519.000000 74.429372
52.555963 519.000000 72.370807
67.270249 519.000000 68.780952
81.984535 519.000000 63.353878
96.698821 519.000000 55.441635
111.413106 519.000000 43.338843
126.127392 519.000000 9.601184
126.127392 519.000000 9.601184
111.413106 519.000000 -24.136474
96.698821 519.000000 -36.239267
81.984535 519.000000 -44.151509
67.270249 519.000000 -49.578583
52.555963 519.000000 -53.168438
37.841678 519.000000 -55.227003
23.127392 519.000000 -55.898816
8.413106 519.000000 -55.227003
-6.301179 519.000000 -53.168438
-21.015465 519.000000 -49.578583
-35.729751 519.000000 -44.151509
-50.444037 519.000000 -36.239267
-65.158322 519.000000 -24.136474
-79.872608 519.000000 9.601184
-78.850246 520.000000 9.569549
-64.278818 520.000000 43.307207
-49.707389 520.000000 55.410000
-35.135961 520.000000 63.322242
-20.564532 520.000000 68.749317
-5.993104 520.000000 72.339172
8.578325 520.000000 74.397736
23.149754 520.000000 75.069549
37.721182 520.000000 74.397736
52.292611 520.000000 72.339172
66.864039 520.000000 68.749317
81.435468 520.000000 63.322242
96.006896 520.000000 55.410000
110.578325 520.000000 43.307207
125.149754 520.000000 9.569549
125.149754 520.000000 9.569549
110.578325 520.000000 -24.168109
96.006896 520.000000 -36.270902
81.435468 520.000000 -44.183144
66.864039 520.000000 -49.610219
52.292611 520.000000 -53.200073
37.721182 520.000000 -55.258638
23.149754 520.000000 -55.930451
8.578325 520.000000 -55.258638
-5.993104 520.000000 -53.200073
-20.564532 520.000000 -49.610219
-35.135961 520.000000 -44.183144
-49.707389 520.000000 -36.270902
-64.278818 520.000000 -24.168109
-78.850246 520.000000 9.569549
-78.827885 521.000000 9.037914
-64.256456 521.000000 42.518033
-49.685028 521.000000 54.528438
-35.113599 521.000000 62.380281
-20.542171 521.000000 67.765928
-5.970742 521.000000 71.328379
8.600687 521.000000 73.371230
23.172115 521.000000 74.037914
37.743544 521.000000 73.371230
52.314972 521.000000 71.328379
66.886401 521.000000 67.765928
81.457829 521.000000 62.380281
96.029258 521.000000 54.528438
110.600687 521.000000 42.518033
125.172115 521.000000 9.037914
125.172115 521.000000 9.037914
110.600687 521.000000 -24.442205
96.029258 521.000000 -36.452610
81.457829 521.000000 -44.304454
66.886401 521.000000 -49.690100
52.314972 521.000000 -53.252551
37.743544 521.000000 -55.295402
23.172115 521.000000 -55.962086
8.600687 521.000000 -55.295402
-5.970742 521.000000 -53.252551
-20.542171 521.000000 -49.690100
-35.113599 521.000000 -44.304454
-49.685028 521.000000 -36.452610
-64.256456 521.000000 -24.442205
-78.827885 521.000000 9.037914
-78.805523 522.000000 9.006279
-64.234095 522.000000 42.486398
-49.662666 522.000000 54.496802
-35.091238 522.000000 62.348646
-20.519809 522.000000 67.734292
-5.948380 522.000000 71.296744
8.623048 522.000000 73.339594
23.194477 522.000000 74.006279
37.765905 522.000000 73.339594
52.337334 522.000000 71.296744
66.908762 522.000000 67.734292
81.480191 522.000000 62.348646
96.051620 522.000000 54.496802
110.623048 522.000000 42.486398
125.194477 522.000000 9.006279
125.194477 522.000000 9.006279
110.623048 522.000000 -24.473840
96.051620 522.000000 -36.484245
81.480191 522.000000 -44.336089
66.908762 522.000000 -49.721735
52.337334 522.000000 -53.284186
37.765905 522.000000 -55.327037
23.194477 522.000000 -55.993721
8.623048 522.000000 -55.327037
-5.948380 522.000000 -53.284186
-20.519809 522.000000 -49.721735
-35.091238 522.000000 -44.336089
-49.662666 522.000000 -36.484245
-64.234095 522.000000 -24.473840
-78.805523 522.000000 9.006279
-78.783162 523.000000 8.974643
-64.283162 523.000000 42.454762
-49.783162 523.000000 54.465167
-35.283162 523.000000 62.317011
-20.783162 523.000000 67.702657
-6.283162 523.000000 71.265108
8.216838 523.000000 73.307959
22.716838 523.000000 73.974643
37.216838 523.000000 73.307959
51.716838 523.000000 71.265108
66.216838 523.000000 67.702657
80.716838 523.000000 62.317011
95.216838 523.000000 54.465167
109.716838 523.000000 42.454762
124.216838 523.000000 8.974643
124.216838 523.000000 8.974643
109.716838 523.000000 -24.505476
95.216838 523.000000 -36.515880
80.716838 523.000000 -44.367724
66.216838 523.000000 -49.753370
51.716838 523.000000 -53.315822
37.216838 523.000000 -55.358672
22.716838 523.000000 -56.025357
8.216838 523.000000 -55.358672
-6.283162 523.000000 -53.315822
-20.783162 523.000000 -49.753370
-35.283162 523.000000 -44.367724
-49.783162 523.000000 -36.515880
-64.283162 523.000000 -24.505476
-78.783162 523.000000 8.974643
-78.760800 524.000000 8.943008
-64.260800 524.000000 42.423127
-49.760800 524.000000 54.433532
-35.260800 524.000000 62.285376
-20.760800 524.000000 67.671022
-6.260800 524.000000 71.233473
8.239200 524.000000 73.276324
22.739200 524.000000 73.943008
37.239200 524.000000 73.276324
51.739200 524.000000 71.233473
66.239200 524.000000 67.671022
80.739200 524.000000 62.285376
95.239200 524.000000 54.433532
109.739200 524.000000 42.423127
124.239200 524.000000 8.943008
124.239200 524.000000 8.943008
109.739200 524.000000 -24.537111
95.239200 524.000000 -36.547516
80.739200 524.000000 -44.399359
66.239200 524.000000 -49.785006
51.739200 524.000000 -53.347457
37.239200 524.000000 -55.390308
22.739200 524.000000 -56.056992
8.239200 524.000000 -55.390308
-6.260800 524.000000 -53.347457
-20.760800 524.000000 -49.785006
-35.260800 524.000000 -44.399359
-49.760800 524.000000 -36.547516
-64.260800 524.000000 -24.537111
-78.760800 524.000000 8.943008
-78.738439 525.000000 8.911373
-64.238439 525.000000 42.391492
-49.738439 525.000000 54.401897
-35.238439 525.000000 62.253740
-20.738439 525.000000 67.639387
-6.238439 525.000000 71.201838
8.261561 525.000000 73.244689
22.761561 525.000000 73.911373
37.261561 525.000000 73.244689
51.761561 525.000000 71.201838
66.261561 525.000000 67.639387
80.761561 525.000000 62.253740
95.261561 525.000000 54.401897
109.761561 525.000000 42.391492
124.261561 525.000000 8.911373
124.261561 525.000000 8.911373
109.761561 525.000000 -24.568746
95.261561 525.000000 -36.579151
80.761561 525.000000 -44.430995
66.261561 525.000000 -49.816641
51.761561 525.000000 -53.379092
37.261561 525.000000 -55.421943
22.761561 525.000000 -56.088627
8.261561 525.000000 -55.421943
-6.238439 525.000000 -53.379092
-20.738439 525.000000 -49.816641
-35.238439 525.000000 -44.430995
-49.738439 525.000000 -36.579151
-64.238439 525.000000 -24.568746
-78.738439 525.000000 8.911373
-78.716077 526.000000 8.879738
-64.216077 526.000000 42.359857
-49.716077 526.000000 54.370261
-35.216077 526.000000 62.222105
-20.716077 526.000000 67.607751
-6.216077 526.000000 71.170203
8.283923 526.000000 73.213053
22.783923 526.000000 73.879738
37.283923 526.000000 73.213053
51.783923 526.000000 71.170203
66.283923 526.000000 67.607751
80.783923 526.000000 62.222105
95.283923 526.000000 54.370261
109.783923 526.000000 42.359857
124.283923 526.000000 8.879738
124.283923 526.000000 8.879738
109.783923 526.000000 -24.600381
95.283923 526.000000 -36.610786
80.783923 526.000000 -44.462630
66.283923 526.000000 -49.848276
51.783923 526.000000 -53.410727
37.283923 526.000000 -55.453578
22.783923 526.000000 -56.120262
8.283923 526.000000 -55.453578
-6.216077 526.000000 -53.410727
-20.716077 526.000000 -49.848276
-35.216077 526.000000 -44.462630
-49.716077 526.000000 -36.610786
-64.216077 526.000000 -24.600381
-78.716077 526.000000 8.879738
-78.693715 527.000000 9.348102
-64.193715 527.000000 42.570682
-49.693715 527.000000 54.488699
-35.193715 527.000000 62.280144
-20.693715 527.000000 67.624362
-6.193715 527.000000 71.159410
8.306285 527.000000 73.186546
22.806285 527.000000 73.848102
37.306285 527.000000 73.186546
51.806285 527.000000 71.159410
66.306285 527.000000 67.624362
80.806285 527.000000 62.280144
95.306285 527.000000 54.488699
109.806285 527.000000 42.570682
124.306285 527.000000 9.348102
124.306285 527.000000 9.348102
109.806285 527.000000 -23.874477
95.306285 527.000000 -35.792494
80.806285 527.000000 -43.583939
66.306285 527.000000 -48.928157
51.806285 527.000000 -52.463205
37.306285 527.000000 -54.490342
22.806285 527.000000 -55.151898
8.306285 527.000000 -54.490342
-6.193715 527.000000 -52.463205
-20.693715 527.000000 -48.928157
-35.193715 527.000000 -43.583939
-49.693715 527.000000 -35.792494
-64.193715 527.000000 -23.874477
-78.693715 527.000000 9.348102
-78.671354 528.000000 9.316467
-64.242782 528.000000 42.539047
-49.814211 528.000000 54.457064
-35.385640 528.000000 62.248509
-20.957068 528.000000 67.592727
-6.528497 528.000000 71.127775
7.900075 528.000000 73.154911
22.328646 528.000000 73.816467
36.757218 528.000000 73.154911
51.185789 528.000000 71.127775
65.614360 528.000000 67.592727
80.042932 528.000000 62.248509
94.471503 528.000000 54.457064
108.900075 528.000000 42.539047
123.328646 528.000000 9.316467
123.328646 528.000000 9.316467
108.900075 528.000000 -23.906112
94.471503 528.000000 -35.824130
80.042932 528.000000 -43.615574
65.614360 528.000000 -48.959793
51.185789 528.000000 -52.494840
36.757218 528.000000 -54.521977
22.328646 528.000000 -55.183533
7.900075 528.000000 -54.521977
-6.528497 528.000000 -52.494840
-20.957068 528.000000 -48.959793
-35.385640 528.000000 -43.615574
-49.814211 528.000000 -35.824130
-64.242782 528.000000 -23.906112
-78.671354 528.000000 9.316467
-78.648992 529.000000 8.784832
-64.220421 529.000000 41.749872
-49.791849 529.000000 53.575502
-35.363278 529.000000 61.306548
-20.934707 529.000000 66.609338
-6.506135 529.000000 70.116982
7.922436 529.000000 72.128404
22.351008 529.000000 72.784832
36.779579 529.000000 72.128404
51.208151 529.000000 70.116982
65.636722 529.000000 66.609338
80.065293 529.000000 61.306548
94.493865 529.000000 53.575502
108.922436 529.000000 41.749872
123.351008 529.000000 8.784832
123.351008 529.000000 8.784832
108.922436 529.000000 -24.180208
94.493865 529.000000 -36.005838
80.065293 529.000000 -43.736884
65.636722 529.000000 -49.039674
51.208151 529.000000 -52.547318
36.779579 529.000000 -54.558740
22.351008 529.000000 -55.215168
7.922436 529.000000 -54.558740
-6.506135 529.000000 -52.547318
-20.934707 529.000000 -49.039674
-35.363278 529.000000 -43.736884
-49.791849 529.000000 -36.005838
-64.220421 529.000000 -24.180208
-78.648992 529.000000 8.784832
-78.626631 530.000000 8.753197
-64.269488 530.000000 41.718237
-49.912345 530.000000 53.543866
-35.555202 530.000000 61.274912
-21.198059 530.000000 66.577702
-6.840916 530.000000 70.085347
7.516226 530.000000 72.096769
21.873369 530.000000 72.753197
36.230512 530.000000 72.096769
50.587655 530.000000 70.085347
64.944798 530.000000 66.577702
79.301941 530.000000 61.274912
93.659084 530.000000 53.543866
108.016226 530.000000 41.718237
122.373369 530.000000 8.753197
122.373369 530.000000 8.753197
108.016226 530.000000 -24.211844
93.659084 530.000000 -36.037473
79.301941 530.000000 -43.768519
64.944798 530.000000 -49.071309
50.587655 530.000000 -52.578954
36.230512 530.000000 -54.590376
21.873369 530.000000 -55.246803
7.516226 530.000000 -54.590376
-6.840916 530.000000 -52.578954
-21.198059 530.000000 -49.071309
-35.555202 530.000000 -43.768519
-49.912345 530.000000 -36.037473
-64.269488 530.000000 -24.211844
-78.626631 530.000000 8.753197
-77.604269 531.000000 8.721561
-63.318555 531.000000 41.686602
-49.032841 531.000000 53.512231
-34.747126 531.000000 61.243277
-20.461412 531.000000 66.546067
-6.175698 531.000000 70.053712
8.110017 531.000000 72.065134
22.395731 531.000000 72.721561
36.681445 531.000000 72.065134
50.967159 531.000000 70.053712
65.252874 531.000000 66.546067
79.538588 531.000000 61.243277
93.824302 531.000000 53.512231
108.110017 531.000000 41.686602
122.395731 531.000000 8.721561
122.395731 531.000000 8.721561
108.110017 531.000000 -24.243479
93.824302 531.000000 -36.069108
79.538588 531.000000 -43.800154
65.252874 531.000000 -49.102944
50.967159 531.000000 -52.610589
36.681445 531.000000 -54.622011
22.395731 531.000000 -55.278439
8.110017 531.000000 -54.622011
-6.175698 531.000000 -52.610589
-20.461412 531.000000 -49.102944
-34.747126 531.000000 -43.800154
-49.032841 531.000000 -36.069108
-63.318555 531.000000 -24.243479
-77.604269 531.000000 8.721561
-77.581908 532.000000 8.689926
-63.296193 532.000000 41.654966
-49.010479 532.000000 53.480596
-34.724765 532.000000 61.211642
-20.439050 532.000000 66.514432
-6.153336 532.000000 70.022076
8.132378 532.000000 72.033499
22.418092 532.000000 72.689926
36.703807 532.000000 72.033499
50.989521 532.000000 70.022076
65.275235 532.000000 66.514432
79.560950 532.000000 61.211642
93.846664 532.000000 53.480596
108.132378 532.000000 41.654966
122.418092 532.000000 8.689926
122.418092 532.000000 8.689926
108.132378 532.000000 -24.275114
93.846664 532.000000 -36.100743
79.560950 532.000000 -43.831789
65.275235 532.000000 -49.134580
50.989521 532.000000 -52.642224
36.703807 532.000000 -54.653646
22.418092 532.000000 -55.310074
8.132378 532.000000 -54.653646
-6.153336 532.000000 -52.642224
-20.439050 532.000000 -49.134580
-34.724765 532.000000 -43.831789
-49.010479 532.000000 -36.100743
-63.296193 532.000000 -24.275114
-77.581908 532.000000 8.689926
-77.559546 533.000000 8.158291
-63.273832 533.000000 40.865792
-48.988117 533.000000 52.599033
-34.702403 533.000000 60.269681
-20.416689 533.000000 65.531043
-6.130975 533.000000 69.011284
8.154740 533.000000 71.006992
22.440454 533.000000 71.658291
36.726168 533.000000 71.006992
51.011883 533.000000 69.011284
65.297597 533.000000 65.531043
79.583311 533.000000 60.269681
93.869025 533.000000 52.599033
108.154740 533.000000 40.865792
122.440454 533.000000 8.158291
122.440454 533.000000 8.158291
108.154740 533.000000 -24.549210
93.869025 533.000000 -36.282452
79.583311 533.000000 -43.953099
65.297597 533.000000 -49.214461
51.011883 533.000000 -52.694702
36.726168 533.000000 -54.690410
22.440454 533.000000 -55.341709
8.154740 533.000000 -54.690410
-6.130975 533.000000 -52.694702
-20.416689 533.000000 -49.214461
-34.702403 533.000000 -43.953099
-48.988117 533.000000 -36.282452
-63.273832 533.000000 -24.549210
-77.559546 533.000000 8.158291
-77.537184 534.000000 8.626656
-63.251470 534.000000 41.076617
-48.965756 534.000000 52.717471
-34.680042 534.000000 60.327720
-20.394327 534.000000 65.547654
-6.108613 534.000000 69.000491
8.177101 534.000000 70.980485
22.462816 534.000000 71.626656
36.748530 534.000000 70.980485
51.034244 534.000000 69.000491
65.319958 534.000000 65.547654
79.605673 534.000000 60.327720
93.891387 534.000000 52.717471
108.177101 534.000000 41.076617
122.462816 534.000000 8.626656
122.462816 534.000000 8.626656
108.177101 534.000000 -23.823306
93.891387 534.000000 -35.464160
79.605673 534.000000 -43.074408
65.319958 534.000000 -48.294342
51.034244 534.000000 -51.747180
36.748530 534.000000 -53.727173
22.462816 534.000000 -54.373344
8.177101 534.000000 -53.727173
-6.108613 534.000000 -51.747180
-20.394327 534.000000 -48.294342
-34.680042 534.000000 -43.074408
-48.965756 534.000000 -35.464160
-63.251470 534.000000 -23.823306
-77.537184 534.000000 8.626656
-76.514823 535.000000 8.595020
-62.371966 535.000000 41.044982
-48.229109 535.000000 52.685836
-34.086251 535.000000 60.296084
-19.943394 535.000000 65.516018
-5.800537 535.000000 68.968856
8.342320 535.000000 70.948850
22.485177 535.000000 71.595020
36.628034 535.000000 70.948850
50.770891 535.000000 68.968856
64.913749 535.000000 65.516018
79.056606 535.000000 60.296084
93.199463 535.000000 52.685836
107.342320 535.000000 41.044982
121.485177 535.000000 8.595020
121.485177 535.000000 8.595020
107.342320 535.000000 -23.854941
93.199463 535.000000 -35.495795
79.056606 535.000000 -43.106043
64.913749 535.000000 -48.325977
50.770891 535.000000 -51.778815
36.628034 535.000000 -53.758809
22.485177 535.000000 -54.404980
8.342320 535.000000 -53.758809
-5.800537 535.000000 -51.778815
-19.943394 535.000000 -48.325977
-34.086251 535.000000 -43.106043
-48.229109 535.000000 -35.495795
-62.371966 535.000000 -23.854941
-76.514823 535.000000 8.595020
-76.492461 536.000000 8.563385
-62.349604 536.000000 41.013347
-48.206747 536.000000 52.654201
-34.063890 536.000000 60.264449
-19.921033 536.000000 65.484383
-5.778176 536.000000 68.937221
8.364682 536.000000 70.917214
22.507539 536.000000 71.563385
36.650396 536.000000 70.917214
50.793253 536.000000 68.937221
64.936110 536.000000 65.484383
79.078967 536.000000 60.264449
93.221824 536.000000 52.654201
107.364682 536.000000 41.013347
121.507539 536.000000 8.563385
121.507539 536.000000 8.563385
107.364682 536.000000 -23.886576
93.221824 536.000000 -35.527430
79.078967 536.000000 -43.137679
64.936110 536.000000 -48.357613
50.793253 536.000000 -51.810450
36.650396 536.000000 -53.790444
22.507539 536.000000 -54.436615
8.364682 536.000000 -53.790444
-5.778176 536.000000 -51.810450
-19.921033 536.000000 -48.357613
-34.063890 536.000000 -43.137679
-48.206747 536.000000 -35.527430
-62.349604 536.000000 -23.886576
-76.492461 536.000000 8.563385
-76.470100 537.000000 8.531750
-62.327243 537.000000 40.981711
-48.184385 537.000000 52.622565
-34.041528 537.000000 60.232814
-19.898671 537.000000 65.452748
-5.755814 537.000000 68.905585
8.387043 537.000000 70.885579
22.529900 537.000000 71.531750
36.672757 537.000000 70.885579
50.815615 537.000000 68.905585
64.958472 537.000000 65.452748
79.101329 537.000000 60.232814
93.244186 537.000000 52.622565
107.387043 537.000000 40.981711
121.529900 537.000000 8.531750
121.529900 537.000000 8.531750
107.387043 537.000000 -23.918211
93.244186 537.000000 -35.559065
79.101329 537.000000 -43.169314
64.958472 537.000000 -48.389248
50.815615 537.000000 -51.842085
36.672757 537.000000 -53.822079
22.529900 537.000000 -54.468250
8.387043 537.000000 -53.822079
-5.755814 537.000000 -51.842085
-19.898671 537.000000 -48.389248
-34.041528 537.000000 -43.169314
-48.184385 537.000000 -35.559065
-62.327243 537.000000 -23.918211
-76.470100 537.000000 8.531750
-76.447738 538.000000 8.500115
-62.304881 538.000000 40.950076
-48.162024 538.000000 52.590930
-34.019167 538.000000 60.201179
-19.876310 538.000000 65.421113
-5.733452 538.000000 68.873950
8.409405 538.000000 70.853944
22.552262 538.000000 71.500115
36.695119 538.000000 70.853944
50.837976 538.000000 68.873950
64.980833 538.000000 65.421113
79.123690 538.000000 60.201179
93.266548 538.000000 52.590930
107.409405 538.000000 40.950076
121.552262 538.000000 8.500115
121.552262 538.000000 8.500115
107.409405 538.000000 -23.949847
93.266548 538.000000 -35.590701
79.123690 538.000000 -43.200949
64.980833 538.000000 -48.420883
50.837976 538.000000 -51.873721
36.695119 538.000000 -53.853714
22.552262 538.000000 -54.499885
8.409405 538.000000 -53.853714
-5.733452 538.000000 -51.873721
-19.876310 538.000000 -48.420883
-34.019167 538.000000 -43.200949
-48.162024 538.000000 -35.590701
-62.304881 538.000000 -23.949847
-76.447738 538.000000 8.500115
-76.425377 539.000000 8.468479
-62.496805 539.000000 40.918441
-48.568234 539.000000 52.559295
-34.639662 539.000000 60.169543
-20.711091 539.000000 65.389477
-6.782519 539.000000 68.842315
7.146052 539.000000 70.822309
21.074623 539.000000 71.468479
35.003195 539.000000 70.822309
48.931766 539.000000 68.842315
62.860338 539.000000 65.389477
76.788909 539.000000 60.169543
90.717481 539.000000 52.559295
104.646052 539.000000 40.918441
118.574623 539.000000 8.468479
118.574623 539.000000 8.468479
104.646052 539.000000 -23.981482
90.717481 539.000000 -35.622336
76.788909 539.000000 -43.232584
62.860338 539.000000 -48.452518
48.931766 539.000000 -51.905356
35.003195 539.000000 -53.885350
21.074623 539.000000 -54.531521
7.146052 539.000000 -53.885350
-6.782519 539.000000 -51.905356
-20.711091 539.000000 -48.452518
-34.639662 539.000000 -43.232584
-48.568234 539.000000 -35.622336
-62.496805 539.000000 -23.981482
-76.425377 539.000000 8.468479
-76.403015 540.000000 8.936844
-62.474444 540.000000 41.129266
-48.545872 540.000000 52.677733
-34.617301 540.000000 60.227582
-20.688729 540.000000 65.406088
-6.760158 540.000000 68.831522
7.168414 540.000000 70.795802
21.096985 540.000000 71.436844
35.025556 540.000000 70.795802
48.954128 540.000000 68.831522
62.882699 540.000000 65.406088
76.811271 540.000000 60.227582
90.739842 540.000000 52.677733
104.668414 540.000000 41.129266
118.596985 540.000000 8.936844
118.596985 540.000000 8.936844
104.668414 540.000000 -23.255578
90.739842 540.000000 -34.804044
76.811271 540.000000 -42.353894
62.882699 540.000000 -47.532400
48.954128 540.000000 -50.957834
35.025556 540.000000 -52.922113
21.096985 540.000000 -53.563156
7.168414 540.000000 -52.922113
-6.760158 540.000000 -50.957834
-20.688729 540.000000 -47.532400
-34.617301 540.000000 -42.353894
-48.545872 540.000000 -34.804044
-62.474444 540.000000 -23.255578
-76.403015 540.000000 8.936844
-75.380653 541.000000 8.405209
-61.594939 541.000000 40.340092
-47.809225 541.000000 51.796170
-34.023511 541.000000 59.285621
-20.237796 541.000000 64.422699
-6.452082 541.000000 67.820730
7.333632 541.000000 69.769295
21.119347 541.000000 70.405209
34.905061 541.000000 69.769295
48.690775 541.000000 67.820730
62.476489 541.000000 64.422699
76.262204 541.000000 59.285621
90.047918 541.000000 51.796170
103.833632 541.000000 40.340092
117.619347 541.000000 8.405209
117.619347 541.000000 8.405209
103.833632 541.000000 -23.529674
90.047918 541.000000 -34.985752
76.262204 541.000000 -42.475203
62.476489 541.000000 -47.612281
48.690775 541.000000 -51.010312
34.905061 541.000000 -52.958877
21.119347 541.000000 -53.594791
7.333632 541.000000 -52.958877
-6.452082 541.000000 -51.010312
-20.237796 541.000000 -47.612281
-34.023511 541.000000 -42.475203
-47.809225 541.000000 -34.985752
-61.594939 541.000000 -23.529674
-75.380653 541.000000 8.405209
-75.358292 542.000000 8.373574
-61.572578 542.000000 40.308456
-47.786863 542.000000 51.764535
-34.001149 542.000000 59.253986
-20.215435 542.000000 64.391064
-6.429720 542.000000 67.789094
7.355994 542.000000 69.737660
21.141708 542.000000 70.373574
34.927422 542.000000 69.737660
48.713137 542.000000 67.789094
62.498851 542.000000 64.391064
76.284565 542.000000 59.253986
90.070280 542.000000 51.764535
103.855994 542.000000 40.308456
117.641708 542.000000 8.373574
117.641708 542.000000 8.373574
103.855994 542.000000 -23.561309
90.070280 542.000000 -35.017387
76.284565 542.000000 -42.506838
62.498851 542.000000 -47.643916
48.713137 542.000000 -51.041947
34.927422 542.000000 -52.990512
21.141708 542.000000 -53.626426
7.355994 542.000000 -52.990512
-6.429720 542.000000 -51.041947
-20.215435 542.000000 -47.643916
-34.001149 542.000000 -42.506838
-47.786863 542.000000 -35.017387
-61.572578 542.000000 -23.561309
-75.358292 542.000000 8.373574
-75.335930 543.000000 8.341939
-61.550216 543.000000 40.276821
-47.764502 543.000000 51.732900
-33.978787 543.000000 59.222351
-20.193073 543.000000 64.359429
-6.407359 543.000000 67.757459
7.378355 543.000000 69.706024
21.164070 543.000000 70.341939
34.949784 543.000000 69.706024
48.735498 543.000000 67.757459
62.521213 543.000000 64.359429
