ply
format ascii 1.0
element vertex 685
property float x
property float y
property float z
element face 0
property list uchar int vertex_index
end_header
-27.292613 7.491009 63.029148
-27.371626 6.970041 62.759929
-27.443028 6.434639 62.625312
-27.624753 5.936836 62.521267
-27.671275 5.387511 62.553023
-27.805876 4.792279 62.417566
-27.913544 4.312591 62.513480
-27.896006 3.762613 62.546961
-27.849374 3.208696 62.515210
-27.837911 2.717342 62.416704
-27.773839 2.166264 62.418429
-27.727365 1.646698 62.386809
-27.599272 1.095885 62.390255
-27.552908 0.544705 62.358664
-27.471165 0.058893 62.393702
-27.424863 -0.491793 62.362107
-27.250611 -1.009601 62.333985
-27.044527 -1.526964 62.306747
-26.816458 -2.047121 62.378468
-26.574713 -2.641718 62.648761
-26.436931 -3.169253 62.785224
-26.293832 -3.670312 62.989280
-26.274869 -4.277440 63.258703
-26.250937 -4.828974 63.598740
-26.381566 -5.277939 63.834891
-28.486523 5.544087 63.119564
-28.630540 5.093092 63.101583
-28.767194 4.616117 63.114167
-28.857569 4.221254 62.960895
-28.940634 3.654405 62.838701
-29.044986 3.242049 62.867074
-29.105618 2.820345 62.596000
-28.897702 2.385464 62.539133
-28.831583 1.946554 62.465294
-28.727439 1.480155 62.436776
-28.633650 1.043378 62.482874
-28.661362 0.603258 62.362954
-28.848254 0.164486 62.271401
-28.941297 -0.272102 62.225822
-28.972252 -0.708079 62.210658
-28.937377 -1.172311 62.122182
-28.792283 -1.608370 62.034865
-28.546804 -2.106628 62.022311
-28.355946 -2.518166 62.009209
-28.227369 -2.986583 61.965847
-27.953344 -3.471273 62.176847
-27.985038 -3.821427 62.161578
-27.818928 -4.302732 62.268131
-27.525639 -4.861521 62.543055
-27.415754 -5.413856 62.757341
-30.254230 1.950907 63.281863
-30.272486 1.531665 63.103693
-30.228106 1.237682 62.882264
-30.269418 0.844850 62.796900
-30.293905 0.473382 62.677187
-30.264969 0.103565 62.702379
-30.243875 -0.327436 62.573677
-30.194011 -0.654574 62.470509
-30.170862 -1.039368 62.211633
-30.129637 -1.384189 62.126627
-30.104956 -1.749364 62.075735
-30.086484 -2.115805 62.079610
-29.998280 -2.479892 62.023479
-29.887465 -2.806276 62.046701
-29.781023 -3.271364 61.994494
-29.674759 -3.593522 61.942375
-29.588163 -3.984096 62.016248
-29.530317 -4.373862 62.065594
-29.356227 -4.731058 62.214104
-29.160216 -5.288685 62.537336
-29.379730 11.737609 66.524521
-29.971242 11.124527 65.677112
-30.395993 10.608786 65.593356
-30.606257 10.113636 65.137637
-30.814216 9.523116 64.769439
-31.151883 8.933648 64.365123
-31.261969 8.523145 64.124995
-31.315492 8.045525 63.926274
-31.461675 7.528715 63.689384
-31.606779 6.941075 63.454243
-31.660308 6.555745 63.337332
-31.772041 6.145944 63.337273
-31.921017 5.624379 63.337194
-31.864214 5.099694 63.298359
-31.956274 4.650062 63.259493
-32.087541 4.168905 63.298241
-32.008997 3.787300 63.143298
-32.006953 3.300440 63.066091
-32.098588 2.853558 63.027510
-32.174957 2.374523 63.104583
-32.061526 1.963832 63.027529
-32.004915 1.480993 62.989073
-31.870597 1.070184 62.797416
-31.853056 0.627328 62.835677
-31.888116 0.183595 62.759201
-31.847538 -0.332394 62.606864
-31.772167 -0.736570 62.531001
-31.751211 -1.249216 62.417503
-31.807156 -1.727531 62.455264
-31.805378 -2.275806 62.379730
-31.752924 -2.721034 62.493129
-31.766969 -3.152575 62.304397
-31.696979 -3.564301 62.455321
-31.642680 -4.154584 62.493186
-31.467152 -4.592310 62.950917
-30.799257 10.885036 65.959636
-31.258855 10.304159 65.469230
-31.569227 9.812001 65.218964
-31.999633 9.204381 64.638794
-32.428526 8.646654 64.401428
-32.520200 8.269778 64.239101
-32.674820 7.855647 64.079784
-32.723448 7.317538 63.979193
-32.932916 6.943922 63.864158
-33.065245 6.375727 63.828174
-33.244425 6.007163 63.693084
-33.285204 5.481041 63.634170
-33.456571 5.051220 63.540163
-33.558924 4.594679 63.484015
-33.586811 4.215776 63.505053
-33.574485 3.737849 63.584616
-33.608556 3.253085 63.565863
-33.667027 2.831088 63.388460
-33.537222 2.388326 63.423292
-33.459841 2.042710 63.320621
-33.534083 1.523889 63.244038
-33.500091 1.112335 63.262541
-33.558700 0.697770 63.086541
-33.648015 0.183591 63.110010
-33.635831 -0.227658 63.188652
-33.580314 -0.570564 63.146781
-33.497045 -1.050593 63.083980
-33.453944 -1.426125 62.963652
-33.358279 -1.941979 62.979324
-33.275030 -2.353318 62.916538
-33.275030 -2.799028 62.916538
-33.172689 -3.215843 62.971451
-33.070001 -3.702881 63.026550
-33.035693 -4.014756 63.044958
-32.699545 -4.818810 63.552153
-31.947892 10.003956 65.518185
-32.411837 9.465598 65.186238
-33.128082 8.794930 64.829674
-33.372955 8.307660 64.692615
-33.539296 7.833329 64.534307
-33.839807 7.248159 64.588162
-33.932162 6.685716 64.444396
-33.952972 6.269587 64.314024
-34.199295 5.766385 64.251585
-34.199295 5.356859 64.251585
-34.232504 4.910282 64.227615
-34.195060 4.298730 64.216351
-34.369167 3.912099 64.167152
-34.340351 3.369823 64.226179
-34.402175 2.821638 64.143305
-34.364938 2.516953 64.132026
-34.509408 1.832502 64.142018
-34.472296 1.425893 64.130758
-34.644776 1.049478 64.082041
-34.718550 0.540993 64.104535
-34.857171 -0.000034 64.079692
-34.783722 -0.371800 64.057221
-34.844522 -0.877397 63.975190
-34.807816 -1.350635 63.963905
-34.872758 -1.888475 63.916849
-34.831876 -2.395601 63.870716
-34.656363 -2.876500 63.883714
-34.762635 -3.310541 63.882879
-34.599382 -3.727391 64.000826
-34.202879 -4.774411 63.981199
-34.285704 6.001335 64.594879
-34.285704 5.333231 64.594879
-34.435929 4.845631 64.663662
-34.456191 4.179331 64.791576
-34.501877 3.637454 64.829359
-34.479902 3.098597 64.774146
-34.629325 2.458765 64.842365
-34.846796 1.788351 64.930415
-34.776462 1.316489 64.982672
-34.924634 0.714661 65.050161
-35.106239 0.052522 65.127279
-35.356022 -0.542520 65.151834
-35.478734 -1.135611 65.235728
-35.510956 -1.698061 65.317219
-35.621048 -2.257591 65.445185
-35.541738 -2.917385 65.470398
-35.598209 -3.414308 65.462622
-35.509524 -4.012719 65.388948
-35.409862 -4.550353 65.287898
-34.852846 -5.664557 65.174917
-29.987407 11.949436 67.305827
-30.711643 11.260903 66.610826
-31.494753 10.544623 66.090145
-32.095521 9.956275 65.909833
-32.842698 9.282712 65.742630
-33.106988 8.654411 65.715146
-33.409837 8.099929 65.699116
-33.612949 7.673521 65.755038
-33.806709 7.103958 65.775605
-34.007418 6.646730 65.830964
-34.063610 6.097634 65.911780
-34.183283 5.470380 65.944671
-34.183283 4.998947 65.944671
-34.334122 4.553198 65.953597
-34.326063 4.046773 65.918851
-34.262826 3.508040 65.966532
-34.365680 2.923542 65.929778
-34.602394 2.337009 65.995068
-34.688933 1.902489 66.051286
-34.767266 1.361211 66.072853
-34.970259 0.891587 66.160961
-34.970259 0.497396 66.160961
-35.026049 -0.040122 66.401819
-35.243532 -0.504125 66.557280
-35.498053 -1.035925 66.722104
-35.668035 -1.708855 66.991664
-35.835988 -2.094470 67.100049
-35.805886 -2.592223 67.124062
-35.805886 -3.088734 67.124062
-35.820249 -3.902302 67.032005
-30.532516 11.414977 67.425467
-30.953323 10.840445 67.078474
-31.516359 10.226486 67.058582
-32.086293 9.721406 66.949083
-32.553109 9.069160 66.911062
-32.921345 8.644374 66.942780
-33.141802 8.072668 66.968183
-33.187046 7.627066 67.010539
-33.413139 7.060884 67.068197
-33.435284 6.722492 67.165933
-33.622474 6.198324 67.213414
-33.742117 5.680460 67.121549
-33.779283 5.172988 67.131044
-33.853492 4.797899 67.150003
-33.816408 4.330014 67.140529
-33.846164 3.790314 67.117640
-34.001417 3.245880 67.187794
-34.104638 2.839206 67.183791
-34.244165 2.332422 67.189197
-34.353858 1.862109 67.217321
-34.586709 1.390554 67.186611
-34.477692 0.960739 67.309472
-34.745789 0.493547 67.588695
-34.933217 -0.003712 67.966762
-35.062439 -0.433167 68.088871
-35.262761 -0.959520 68.378068
-35.440706 -1.450642 68.570914
-35.582570 -1.809302 68.754513
-35.716827 -2.297934 68.905925
-35.717294 -3.053554 69.055546
-29.907590 11.342278 67.874883
-30.277334 10.846263 67.739539
-30.771568 10.331955 67.667621
-31.253127 9.805691 67.884755
-31.866119 9.299213 68.130508
-32.416825 8.567629 68.257559
-32.574936 8.142396 68.317600
-32.644988 7.673134 68.263099
-32.946900 7.239490 68.270429
-32.962873 6.776952 68.242856
-33.150194 6.174825 68.247480
-33.160606 5.808514 68.164026
-33.261632 5.343704 68.055038
-33.341558 4.844604 68.112996
-33.490010 4.405692 68.116960
-33.421236 3.918170 68.170775
-33.442457 3.548797 68.199125
-33.621985 3.017636 68.342179
-33.711191 2.584249 68.509871
-33.852534 2.124302 68.457806
-34.235845 1.596728 68.684867
-34.215334 1.174967 68.657179
-34.297257 0.660710 68.767767
-34.439842 0.268427 68.960243
-34.732837 -0.210063 69.260754
-34.848067 -0.655610 69.369155
-34.896931 -1.129321 69.529974
-35.199081 -1.564196 69.797179
-35.168643 -1.859331 69.850067
-35.203443 -2.566044 69.850122
-30.482764 9.686989 68.396342
-30.949074 9.195335 68.751797
-31.555544 8.729569 69.128199
-31.839523 8.309868 69.318054
-32.073567 7.884613 69.352955
-32.120948 7.456824 69.506202
-32.205929 7.040774 69.548767
-32.369924 6.524808 69.701063
-32.478661 6.134446 69.802042
-32.514018 5.705219 69.726436
-32.576559 5.301384 69.675999
-32.698927 4.925630 69.608752
-32.728814 4.548444 69.600367
-32.755826 4.082422 69.625688
-32.779931 3.788877 69.684624
-32.896305 3.265512 69.684742
-32.976797 2.913797 69.760312
-33.086725 2.505405 69.827284
-33.190172 2.096456 69.960638
-33.328819 1.662384 70.018656
-33.513179 1.227470 70.192012
-33.692901 0.852410 70.396833
-33.855244 0.509708 70.477914
-33.932782 -0.001569 70.550880
-34.119611 -0.425681 70.655477
-34.192926 -0.763415 70.760152
-34.308920 -1.101855 70.727209
-34.345697 -1.548686 70.904029
-34.454141 -1.940263 70.935358
-34.576816 -2.616602 70.838296
-30.270444 9.399568 68.592962
-30.649364 8.948983 68.850295
-30.761218 8.494862 68.996717
-30.970689 7.891425 69.494342
-31.077881 7.617781 69.678448
-31.295392 7.119233 69.961712
-31.317784 6.756239 70.067950
-31.483084 6.279776 70.217117
-31.614425 5.872567 70.420920
-31.731901 5.486887 70.399029
-31.647320 5.073990 70.365324
-31.726186 4.610671 70.479066
-31.852979 4.105696 70.720459
-31.903974 3.856953 70.808518
-31.960735 3.405623 70.817337
-32.177955 2.979990 70.970597
-32.181039 2.568052 70.931286
-32.343786 2.217759 71.035875
-32.440013 1.695881 71.248237
-32.672932 1.346610 71.499214
-32.816746 0.971555 71.462280
-32.967428 0.563303 71.348148
-33.221755 0.086182 71.328131
-33.357813 -0.219684 71.368451
-33.460361 -0.592108 71.462119
-33.383490 -0.932768 71.391905
-33.416601 -1.409135 71.338312
-33.482170 -1.878600 71.523822
-33.580330 -2.211327 71.655043
-33.823783 -2.846106 71.710928
-30.364251 7.431420 69.573752
-30.410964 7.044057 69.525991
-30.359049 6.541495 69.761225
-30.398022 6.090487 70.113109
-30.447878 5.599487 70.331390
-30.569639 5.060824 70.505656
-30.722551 4.632019 70.735719
-30.808862 4.240538 70.825631
-30.978261 3.875313 70.978631
-31.180965 3.177053 71.213259
-31.184142 2.725327 71.496220
-31.356802 2.372419 71.443117
-31.379820 1.817333 71.676287
-31.420739 1.485904 71.834388
-31.548210 0.936921 72.104621
-31.690652 0.473671 72.275093
-31.760812 0.120704 72.484723
-31.897508 -0.312043 72.603343
-32.141013 -0.774292 72.512965
-32.360160 -1.211641 72.418550
-32.520168 -1.645288 72.515990
-32.626708 -1.997386 72.580870
-32.892836 -2.577976 72.417481
-33.023339 -3.122946 72.460810
-33.301027 -4.139487 72.423941
-29.942025 5.997203 69.490549
-29.889838 5.458391 69.810750
-29.842519 5.056885 69.976932
-29.788123 4.576724 70.266325
-29.808673 4.050321 70.621677
-29.886070 3.711127 70.715803
-29.998027 3.296301 70.917444
-30.035633 2.837810 71.050209
-30.074223 2.374371 71.378277
-30.190483 1.894491 71.626310
-30.264110 1.534956 71.886138
-30.256081 1.109347 72.004006
-30.331544 0.662266 72.094901
-30.431916 0.286441 72.215797
-30.420822 -0.158544 72.308102
-30.387559 -0.625567 72.394489
-30.426459 -0.973716 72.546117
-30.615039 -1.442825 72.499637
-30.849891 -1.896235 72.274295
-31.027467 -2.327390 72.103910
-31.308668 -2.789863 71.861390
-31.446128 -3.238769 71.920501
-31.511210 -3.595380 71.912746
-31.591706 -4.028111 71.835937
-32.238322 -5.167894 71.136122
-29.278741 4.448395 69.523136
-29.185646 4.039204 69.842188
-29.114579 3.692244 69.979177
-29.099109 3.215587 70.370489
-29.021663 2.851708 70.450457
-28.943278 2.459593 70.685988
-28.919323 2.073567 70.833740
-28.945701 1.692373 70.868058
-28.927864 1.305619 71.221907
-28.876945 0.924003 71.485301
-28.893813 0.522209 71.768082
-28.976541 0.076731 71.744414
-28.999007 -0.322097 71.751634
-29.035534 -0.625843 71.863793
-28.997720 -1.093346 71.901736
-29.001240 -1.443803 71.927885
-29.068454 -1.747929 71.949482
-29.225281 -2.262564 71.999872
-29.439259 -2.522932 71.993521
-29.672906 -2.902311 71.968190
-29.981488 -3.336622 71.840298
-30.136143 -3.738176 71.864677
-30.308753 -4.107980 71.665802
-30.397871 -4.571948 71.489525
-31.053946 -5.977225 70.603137
-28.218163 4.442917 68.772545
-28.350206 4.055705 68.994240
-28.325300 3.754182 69.251106
-28.232380 3.391028 69.448658
-28.220057 2.937988 69.786079
-28.174739 2.579462 70.027118
-28.211817 2.271614 70.147800
-28.129770 1.942176 70.266303
-28.073181 1.591929 70.421273
-27.893865 1.262768 70.673293
-27.963994 0.873775 70.882374
-27.962176 0.550746 71.133654
-27.969233 0.166409 71.312114
-28.043479 -0.280165 71.420131
-28.060315 -0.556866 71.402733
-28.025630 -0.830791 71.561294
-28.074922 -1.211485 71.632860
-28.157732 -1.550349 71.669830
-28.171975 -1.937458 71.502450
-28.271870 -2.299147 71.522194
-28.432067 -2.603252 71.419063
-28.538034 -2.970802 71.341105
-28.610126 -3.358510 71.297934
-28.665221 -3.767002 71.272218
-29.072873 -4.774676 70.793174
-26.457301 9.594176 67.549148
-26.451568 9.164309 67.513767
-26.357295 8.775525 67.580510
-26.346768 8.387381 67.676491
-26.375551 7.963680 67.852140
-26.338369 7.474184 68.102168
-26.333683 7.087554 68.231315
-26.340446 6.638899 68.428939
-26.314029 6.252897 68.581479
-26.321886 5.767098 68.937543
-26.290039 5.360377 69.053893
-26.278669 4.968968 68.986182
-26.219706 4.677280 69.092758
-26.356818 4.130368 69.299396
-26.520337 3.670479 69.514526
-26.628678 3.304643 69.552590
-26.812733 2.933426 69.742819
-26.904481 2.566147 69.837644
-27.049975 2.171531 69.951216
-27.059782 1.829886 70.172382
-26.983909 1.435538 70.331228
-26.999658 0.933394 70.429099
-26.998015 0.569172 70.886347
-27.003219 0.210345 70.918463
-26.976164 -0.230137 71.060020
-26.965284 -0.586892 71.146494
-26.965284 -0.999166 71.146494
-27.124052 -1.356311 71.202119
-27.187157 -1.739202 71.284269
-27.287833 -2.124490 71.289533
-27.544160 -2.572430 71.168550
-27.607014 -2.927576 71.250941
-27.703252 -3.260859 71.224308
-27.806916 -3.657020 71.078896
-28.028443 -4.740598 70.697756
-25.654493 9.712410 67.081902
-25.496866 9.131251 67.703000
-25.507228 8.723238 67.594708
-25.483224 8.158592 67.958022
-25.552588 7.733481 68.019836
-25.424626 7.233631 68.121462
-25.276026 6.811319 68.105015
-25.342313 6.278245 68.311983
-25.377285 5.844474 68.506727
-25.384256 5.360574 68.545546
-25.528622 4.903572 68.705925
-25.593692 4.316129 68.909614
-25.764922 4.000743 68.898802
-25.845193 3.404496 69.357372
-25.845193 2.992034 69.357372
-25.919612 2.513441 69.455060
-25.935164 2.062550 69.708248
-26.035125 1.615742 69.954700
-26.030735 1.078827 70.092888
-25.978900 0.700317 70.282914
-25.991854 0.199460 70.356743
-26.122563 -0.266982 70.781343
-26.344854 -0.670024 70.928786
-26.374789 -1.104610 70.939450
-26.417115 -1.599377 71.022621
-26.518300 -2.192114 70.956477
-26.619793 -2.568925 70.890133
-26.715535 -2.886213 70.787081
-26.871880 -3.516956 70.705072
-27.285432 -4.935709 70.260710
-24.915342 9.437467 66.819435
-24.828020 8.895295 66.936136
-24.704516 8.402860 67.281058
-24.754441 7.845367 67.394025
-24.716335 7.495325 67.403283
-24.772072 6.969884 67.576995
-24.788185 6.558867 67.541957
-24.789646 6.131667 67.759383
-24.893551 5.548737 67.827909
-24.987120 5.029014 67.991952
-25.026240 4.470623 68.199232
-25.070065 4.126415 68.250852
-25.135809 3.644493 68.328289
-25.032889 3.223142 68.474599
-24.974118 2.564444 68.671463
-24.975172 2.183671 68.884571
-24.912305 1.699141 69.231503
-25.063895 1.290888 69.410211
-24.839857 0.709992 69.667366
-24.926009 0.303778 69.768969
-24.884164 -0.101620 69.926606
-25.002878 -0.708741 70.169811
-25.029954 -1.045569 70.253259
-25.169175 -1.722585 70.314408
-25.212161 -2.195492 70.365114
-25.373287 -2.638038 70.451853
-25.405503 -3.250506 70.386310
-25.800766 -3.919453 70.278899
-26.523121 -4.727584 70.016042
-26.738530 -5.171346 69.730160
-24.584287 8.479072 66.571304
-24.600328 8.039819 66.679430
-24.659204 7.578814 66.692506
-24.638608 7.070271 66.809719
-24.675176 6.641922 66.800499
-24.770744 6.183418 66.804415
-24.853524 5.747082 66.979480
-24.883722 5.179987 67.055732
-24.987393 4.717840 67.113825
-24.982019 4.342728 67.337807
-25.056639 3.844009 67.458496
-24.925708 3.436287 67.600605
-24.906186 2.866891 67.853095
-24.797048 2.401646 67.878804
-24.696149 1.937212 67.957305
-24.661631 1.474882 68.101911
-24.483480 1.078079 68.279134
-24.413802 0.554714 68.430463
-24.279127 0.033904 68.515144
-24.218262 -0.484043 68.716995
-24.289224 -0.744495 68.701031
-24.206766 -1.323987 68.880117
-24.336827 -1.810087 69.011500
-24.242930 -2.186960 69.350824
-24.429390 -2.705250 69.496123
-24.778735 -3.139685 69.501550
-24.987250 -3.699574 69.537280
-25.385273 -4.272374 69.587131
-25.603707 -4.712547 69.541654
-25.934021 -5.131562 69.472884
-24.667576 7.453663 65.557751
-24.586989 7.076498 65.680853
-24.712077 6.598951 65.838139
-24.810679 6.147816 66.037144
-24.812288 5.778007 66.066454
-25.050367 5.335216 66.119714
-25.201552 4.944417 66.179031
-25.233853 4.481181 66.226359
-25.238788 4.015912 66.314952
-25.097197 3.604761 66.432067
-25.069931 3.169601 66.473111
-25.219624 2.617651 66.503808
-25.078091 2.240556 66.620502
-24.819061 1.769335 66.723527
-24.764997 1.305437 66.805009
-24.764997 0.904444 66.805009
-24.560540 0.502550 66.796459
-24.451767 0.133792 66.929294
-24.196222 -0.477160 67.000969
-24.230591 -0.844697 67.106277
-24.152514 -1.332359 67.255990
-24.074612 -1.666333 67.405368
-23.999973 -2.152260 67.612527
-24.034122 -2.550489 67.717976
-24.121282 -2.951743 67.743715
-24.327740 -3.422738 67.843044
-24.450432 -3.922177 67.975464
-24.510387 -4.387750 68.012546
-25.000958 -4.829809 68.430344
-25.191169 -5.624515 68.663126
-25.014236 6.857048 64.879412
-25.084969 6.505465 64.919078
-25.150880 6.128738 64.984234
-25.245663 5.705586 65.037432
-25.388403 5.357355 65.117545
-25.473873 4.930783 65.222213
-25.554552 4.599333 65.352742
-25.520497 4.162553 65.390306
-25.486476 3.798606 65.427831
-25.442428 3.338218 65.516323
-25.461303 3.049799 65.555395
-25.393409 2.589059 65.630183
-25.335686 2.201689 65.653922
-25.220551 1.789558 65.701271
-25.224275 1.381180 65.816493
-25.113225 1.067323 65.978537
-25.055992 0.682922 66.001865
-24.889867 0.227349 66.046340
-24.673010 -0.130117 66.088498
-24.560229 -0.486316 66.134590
-24.396702 -1.006443 66.178370
-24.326097 -1.289576 66.276334
-24.265393 -1.667029 66.324106
-24.242394 -2.068697 66.310481
-24.339384 -2.475476 66.340020
-24.296797 -2.734486 66.426418
-24.277273 -3.183963 66.526421
-24.336643 -3.638195 66.617654
-24.401035 -3.974918 66.684041
-24.741334 -4.906085 66.802879
-26.089541 6.600583 63.583023
-26.126656 6.214207 63.661445
-26.176512 5.755502 63.805547
-26.031483 5.499807 63.963162
-26.178259 5.096975 64.041877
-26.337621 4.766312 64.068327
-26.307048 4.372237 64.081452
-26.258724 4.002259 64.173451
-26.302008 3.613085 64.226225
-26.499644 3.255383 64.332598
-26.469826 2.812124 64.464473
-26.348055 2.390665 64.634937
-26.177590 2.067131 64.777869
-26.031559 1.696833 64.815423
-25.916388 1.280006 64.840119
-25.753992 0.937170 64.955539
-25.633186 0.596192 64.888470
-25.495435 0.135562 64.899513
-25.358287 -0.202308 64.910508
-25.275132 -0.539366 64.922252
-25.009081 -0.944285 64.918279
-24.938981 -1.302865 64.994627
-24.886160 -1.685031 64.993772
-24.862637 -2.067602 64.980508
-24.745966 -2.445996 65.030084
-24.676432 -2.801519 65.106000
-24.816998 -3.143940 65.185812
-24.834785 -3.504352 65.224808
-24.999726 -4.019123 65.318541
-25.278100 -4.448770 65.389405
-27.251581 6.601129 62.891035
-27.087921 6.236898 62.760510
-27.106159 5.923004 62.737629
-27.293523 5.565324 62.742252
-27.377084 5.200640 62.781791
-27.269883 4.682107 62.868081
-27.160080 4.395106 63.005793
-27.084132 4.052834 63.149189
-27.018056 3.686504 63.425052
-26.886885 3.314335 63.637876
-26.875433 3.003678 63.846076
-26.872564 2.630903 63.898244
-26.752717 2.253666 63.902918
-26.808738 1.798577 64.124219
-26.624310 1.449007 64.063905
-26.480569 1.101110 63.906132
-26.550680 0.729228 63.866359
-26.556681 0.328034 63.762566
-26.362153 -0.071771 63.623293
-26.362153 -0.356867 63.623293
-26.347036 -0.784070 63.594549
-26.099808 -1.149424 63.524723
-26.055065 -1.487742 63.439085
-26.000812 -1.856102 63.507191
-25.946566 -2.224414 63.575287
-25.793792 -2.560357 63.625697
-25.739646 -2.928035 63.693677
-25.616714 -3.350393 63.800990
-25.874412 -3.773946 64.187550
-26.169216 -4.291794 64.586067
