ply
format ascii 1.0
element vertex 306
property float x
property float y
property float z
element face 0
property list uchar int vertex_index
end_header
-30.677355 -5.333344 62.789714
-31.650144 -4.990236 63.427953
-32.212186 -5.687416 64.442955
-33.404878 -5.912466 65.166541
-34.233321 -5.850145 65.325561
-28.222122 -4.488834 70.048424
-28.355371 -4.432704 69.768606
-28.420678 -4.409985 69.571104
-28.489505 -4.317189 69.314212
-28.583722 -4.156887 69.048369
-28.692897 -4.167325 68.773993
-28.769513 -4.034570 68.565828
-28.883667 -4.024819 68.309092
-29.080262 -3.989415 68.067114
-29.312223 -4.111049 67.908445
-29.522436 -4.135071 67.619950
-29.562770 -4.035255 67.272185
-29.578190 -3.864666 67.080426
-29.811975 -3.934398 66.828129
-30.250849 -3.970715 66.593790
-30.387669 -4.072072 66.393273
-30.454028 -4.189808 66.103599
-30.491279 -4.315382 65.891686
-30.561358 -4.265365 65.630486
-30.650587 -4.383200 65.381970
-30.732592 -4.374877 65.126016
-30.692539 -4.647146 64.919275
-30.681125 -4.905906 64.642556
-30.692790 -4.906449 64.443506
-30.673293 -4.894008 64.300394
-30.677355 -5.333344 62.789714
-31.650144 -4.990236 63.427953
-32.212186 -5.687416 64.442955
-33.404878 -5.912466 65.166541
-34.233321 -5.850145 65.325561
-31.877115 -5.423453 70.457041
-31.871404 -5.279546 70.254663
-31.882150 -5.095696 70.066815
-31.904407 -5.042646 69.890386
-31.930674 -4.907597 69.688753
-31.977793 -4.829935 69.506515
-32.025826 -4.701280 69.305767
-32.071457 -4.553068 69.093753
-32.145088 -4.530139 68.900740
-32.229621 -4.480702 68.720651
-32.321386 -4.426952 68.500179
-32.384014 -4.349417 68.295437
-32.410832 -4.373915 68.093070
-32.448255 -4.321138 67.893512
-32.434136 -5.151373 67.664844
-32.651869 -5.211342 67.490293
-32.862089 -5.121968 67.363513
-33.015080 -5.284221 67.190737
-33.213509 -5.409370 66.986798
-33.358499 -5.590286 66.866761
-33.517272 -5.778490 66.682229
-33.650981 -5.804750 66.479560
-33.777710 -5.853241 66.335982
-33.949360 -5.939881 66.153546
-34.109072 -5.879292 65.912743
-30.677355 -5.333344 62.789714
-31.650144 -4.990236 63.427953
-32.212186 -5.687416 64.442955
-33.404878 -5.912466 65.166541
-34.233321 -5.850145 65.325561
-30.817740 -6.130192 70.287510
-30.914680 -6.135049 70.101742
-31.007997 -6.122465 69.908525
-31.035497 -6.031675 69.726370
-31.037961 -5.801156 69.548175
-31.054120 -5.775711 69.315314
-31.054567 -5.651952 69.059310
-31.074621 -5.543662 68.889471
-30.761126 -5.316927 68.641160
-30.967634 -5.297126 68.497413
-31.128505 -5.108649 68.298846
-31.113861 -4.969299 68.093342
-31.214733 -4.672792 67.925020
-31.278211 -4.680664 67.710273
-31.350741 -4.821116 67.471601
-31.724663 -5.366295 67.136129
-32.076934 -5.658808 66.979865
-32.256067 -5.774813 66.819590
-32.494602 -6.048883 66.650593
-32.691692 -6.243068 66.491871
-32.889467 -6.267014 66.303510
-33.073525 -6.478227 66.139449
-33.246096 -6.474911 65.955690
-33.510150 -6.197171 65.703114
-33.627586 -6.100778 65.567606
-30.677355 -5.333344 62.789714
-31.650144 -4.990236 63.427953
-32.212186 -5.687416 64.442955
-33.404878 -5.912466 65.166541
-34.233321 -5.850145 65.325561
-29.670250 -5.487832 69.862203
-29.735068 -5.395069 69.661621
-29.795464 -5.411936 69.442692
-29.856092 -5.478574 69.257650
-29.906558 -5.451087 69.058960
-30.023799 -5.296587 68.850432
-30.069150 -5.123156 68.665068
-30.133588 -5.048200 68.413397
-30.204951 -4.983337 68.271751
-30.337924 -4.889405 68.048828
-30.408524 -4.782765 67.851291
-30.473356 -4.718903 67.660483
-30.553131 -4.627467 67.444019
-30.652617 -4.618158 67.211778
-30.769873 -4.512033 67.055143
-30.902713 -4.660953 66.849005
-31.081515 -4.907231 66.645850
-31.309352 -5.274848 66.503063
-31.548338 -5.551543 66.336308
-31.726527 -5.743111 66.124380
-31.864348 -5.811682 65.973171
-32.027126 -5.886898 65.791992
-32.198421 -6.113385 65.648959
-32.362487 -6.104588 65.465273
-32.682272 -5.995920 65.228661
-30.677355 -5.333344 62.789714
-31.650144 -4.990236 63.427953
-32.212186 -5.687416 64.442955
-33.404878 -5.912466 65.166541
-34.233321 -5.850145 65.325561
-27.269750 -5.257066 69.826579
-27.344526 -5.417831 69.525600
-27.552063 -5.082625 69.287970
-27.651282 -5.046693 69.020609
-27.724266 -4.911905 68.826053
-27.769106 -4.864044 68.534318
-27.958263 -4.887977 68.278175
-28.279107 -4.819405 68.019152
-28.551827 -4.653773 67.824982
-28.896039 -4.401918 67.627186
-29.026121 -4.417757 67.373154
-29.060695 -4.348693 67.031468
-28.946420 -4.102832 66.764291
-29.272885 -3.753252 66.329325
-29.598476 -4.345852 66.151605
-29.847199 -4.570597 65.998643
-30.013778 -4.873423 65.824445
-30.161966 -4.991009 65.571511
-30.259275 -5.207307 65.388730
-30.355806 -5.288396 65.060810
-30.457037 -5.251624 64.782109
-30.480100 -5.212202 64.546320
-30.507254 -5.370924 64.219139
-30.644308 -5.283484 64.010825
-30.791145 -5.350305 63.613743
-30.677355 -5.333344 62.789714
-31.650144 -4.990236 63.427953
-32.212186 -5.687416 64.442955
-33.404878 -5.912466 65.166541
-34.233321 -5.850145 65.325561
-26.215073 -6.143663 68.748859
-26.316934 -6.034413 68.507818
-26.437681 -5.977263 68.341826
-26.578668 -5.630603 68.179374
-26.829402 -5.461965 67.998430
-26.984266 -5.329550 67.772010
-27.178345 -5.157923 67.525312
-27.259746 -5.105909 67.397713
-27.500231 -4.896310 67.168207
-27.643336 -4.680910 66.984597
-27.821126 -4.455468 66.751450
-27.940110 -4.218199 66.544815
-28.120661 -3.901853 66.343759
-28.301218 -3.466355 66.081581
-28.378952 -3.277217 65.885751
-28.329782 -3.620458 65.607690
-28.338421 -3.617691 65.381593
-28.374039 -3.861317 65.160262
-28.347928 -3.987123 64.965183
-28.311405 -4.035826 64.686314
-28.343306 -4.086764 64.511403
-28.334117 -4.241303 64.300040
-28.365796 -4.264958 64.021092
-28.288096 -4.557653 63.803896
-28.283109 -4.698766 63.510265
-30.677355 -5.333344 62.789714
-31.650144 -4.990236 63.427953
-32.212186 -5.687416 64.442955
-33.404878 -5.912466 65.166541
-34.233321 -5.850145 65.325561
-25.430827 -6.178916 67.568883
-25.514005 -5.988556 67.510094
-25.636092 -5.780575 67.377722
-25.784284 -5.551703 67.268161
-25.944875 -5.523494 67.095079
-26.057126 -5.424110 66.994694
-26.227725 -5.357458 66.832574
-26.344227 -5.170920 66.721392
-26.534359 -4.920416 66.559580
-26.691430 -4.820895 66.411390
-26.919346 -4.861923 66.306464
-27.330504 -5.138833 66.215903
-27.548364 -5.071306 66.077990
-27.763895 -4.870572 65.934992
-27.805033 -5.062513 65.785580
-27.784265 -5.233782 65.617406
-27.781945 -5.369725 65.482593
-27.781929 -5.432696 65.335966
-27.784761 -5.563666 65.174391
-27.792412 -5.610805 65.010177
-27.778763 -5.721715 64.847426
-27.825922 -5.780386 64.701794
-27.842802 -5.790646 64.558293
-27.857085 -5.812559 64.405778
-27.837318 -5.955375 64.209960
-30.677355 -5.333344 62.789714
-31.650144 -4.990236 63.427953
-32.212186 -5.687416 64.442955
-33.404878 -5.912466 65.166541
-34.233321 -5.850145 65.325561
-24.963597 -5.098408 66.529597
-25.045782 -4.975032 66.338300
-25.130137 -4.829220 66.169972
-25.204602 -4.757918 65.999656
-25.284653 -4.690112 65.787239
-25.370505 -4.695614 65.625622
-25.560853 -4.793109 65.502188
-25.875164 -4.954695 65.318012
-26.115574 -4.811127 65.170240
-26.300472 -4.800917 65.000649
-26.358503 -4.841863 64.849764
-26.501278 -5.089238 64.683785
-26.538757 -5.238873 64.509532
-26.531127 -5.463361 64.335716
-26.585437 -5.674502 63.969817
-30.677355 -5.333344 62.789714
-31.650144 -4.990236 63.427953
-32.212186 -5.687416 64.442955
-33.404878 -5.912466 65.166541
-34.233321 -5.850145 65.325561
-32.520170 -4.740191 70.920730
-32.547883 -4.689734 70.760371
-32.570001 -4.690522 70.579498
-32.569719 -4.562624 70.397932
-32.614326 -4.370328 70.242607
-32.656767 -4.296149 70.054479
-32.718554 -4.055665 69.872052
-32.822941 -4.045549 69.703529
-32.951964 -4.019446 69.540054
-33.081329 -4.166892 69.383249
-33.468065 -4.189289 69.254590
-33.538286 -4.173106 69.103603
-33.517968 -4.228476 68.898012
-33.519966 -4.255840 68.697818
-33.470999 -4.247359 68.497763
-33.405563 -4.371679 68.308097
-33.388278 -4.241515 68.071322
-33.440887 -4.270220 67.947536
-33.651521 -4.502236 67.791975
-33.844131 -4.435877 67.618996
-33.871106 -4.665262 67.473231
-33.949462 -4.937263 67.331652
-34.053178 -5.099330 67.158700
-34.135513 -5.253054 66.976969
-34.190062 -5.377703 66.728238
-30.677355 -5.333344 62.789714
-31.650144 -4.990236 63.427953
-32.212186 -5.687416 64.442955
-33.404878 -5.912466 65.166541
-34.233321 -5.850145 65.325561
-33.065514 -3.716279 71.218215
-33.175682 -3.780292 71.005645
-33.279147 -3.777195 70.756554
-33.437844 -3.645237 70.513221
-33.707515 -3.884302 70.149682
-33.846074 -3.875546 69.922612
-34.058635 -3.894510 69.623246
-34.243952 -4.037933 69.439791
-34.442037 -4.144432 69.151262
-34.614219 -4.289214 68.818633
-34.725393 -4.359888 68.589552
-34.842719 -4.439427 68.335483
-34.937002 -4.555418 68.025087
-35.077083 -4.452737 67.763093
-35.228698 -4.498994 67.436838
-29.722684 -5.615206 62.795266
-31.686363 -5.012455 63.383589
-32.262245 -5.674746 64.372522
-33.499681 -5.912301 65.194632
-34.408485 -5.901450 65.379228
-34.937656 -5.564549 66.174856
-35.160325 -4.555577 67.461347
-35.915739 -3.722344 68.680029
-35.255127 -2.859451 69.711114
-34.843296 -2.960580 70.606911
-33.850018 -3.296666 71.446426
-33.295062 -4.106713 71.412292
-32.252546 -5.137508 71.010649
-30.668385 -5.273554 62.809210
-29.293794 -5.125451 70.503509
-28.074771 -4.773560 70.162724
-26.880158 -5.151161 70.058604
-26.281353 -5.402733 69.445098
-25.975906 -5.918550 68.631400
-25.526174 -5.982054 67.890251
-24.992291 -5.305608 67.220976
-24.894985 -4.674872 66.268859
-25.103461 -4.487417 65.255039
-26.169957 -4.419718 64.361409
-26.989928 -5.137005 63.597882
-28.167605 -5.699074 63.718195
