ply
format ascii 1.0
element vertex 210
property float x
property float y
property float z
element face 0
property list uchar int vertex_index
end_header
-29.795464 -5.411936 69.442692
-29.856092 -5.478574 69.257650
-29.906558 -5.451087 69.058960
-30.023799 -5.296587 68.850432
-30.069150 -5.123156 68.665068
-30.133588 -5.048200 68.413397
-30.204951 -4.983337 68.271751
-30.337924 -4.889405 68.048828
-30.408524 -4.782765 67.851291
-30.473356 -4.718903 67.660483
-30.553131 -4.627467 67.444019
-30.652617 -4.618158 67.211778
-30.769873 -4.512033 67.055143
-30.902713 -4.660953 66.849005
-31.081515 -4.907231 66.645850
-31.309352 -5.274848 66.503063
-31.548338 -5.551543 66.336308
-31.726527 -5.743111 66.124380
-31.864348 -5.811682 65.973171
-32.027126 -5.886898 65.791992
-32.198421 -6.113385 65.648959
-32.362487 -6.104588 65.465273
-32.682272 -5.995920 65.228661
-28.795464 -5.411936 69.442692
-28.856092 -5.478574 69.257650
-28.906558 -5.451087 69.058960
-29.023799 -5.296587 68.850432
-29.069150 -5.123156 68.665068
-29.133588 -5.048200 68.413397
-29.204951 -4.983337 68.271751
-29.337924 -4.889405 68.048828
-29.408524 -4.782765 67.851291
-29.473356 -4.718903 67.660483
-29.553131 -4.627467 67.444019
-29.652617 -4.618158 67.211778
-29.769873 -4.512033 67.055143
-29.902713 -4.660953 66.849005
-30.081515 -4.907231 66.645850
-30.309352 -5.274848 66.503063
-30.548338 -5.551543 66.336308
-30.726527 -5.743111 66.124380
-30.864348 -5.811682 65.973171
-31.027126 -5.886898 65.791992
-31.198421 -6.113385 65.648959
-31.362487 -6.104588 65.465273
-31.682272 -5.995920 65.228661
-27.795464 -5.411936 69.442692
-27.856092 -5.478574 69.257650
-27.906558 -5.451087 69.058960
-28.023799 -5.296587 68.850432
-28.069150 -5.123156 68.665068
-28.133588 -5.048200 68.413397
-28.204951 -4.983337 68.271751
-28.337924 -4.889405 68.048828
-28.408524 -4.782765 67.851291
-28.473356 -4.718903 67.660483
-28.553131 -4.627467 67.444019
-28.652617 -4.618158 67.211778
-28.769873 -4.512033 67.055143
-28.902713 -4.660953 66.849005
-29.081515 -4.907231 66.645850
-29.309352 -5.274848 66.503063
-29.548338 -5.551543 66.336308
-29.726527 -5.743111 66.124380
-29.864348 -5.811682 65.973171
-30.027126 -5.886898 65.791992
-30.198421 -6.113385 65.648959
-30.362487 -6.104588 65.465273
-30.682272 -5.995920 65.228661
-26.795464 -5.411936 69.442692
-26.856092 -5.478574 69.257650
-26.906558 -5.451087 69.058960
-27.023799 -5.296587 68.850432
-27.069150 -5.123156 68.665068
-27.133588 -5.048200 68.413397
-27.204951 -4.983337 68.271751
-27.337924 -4.889405 68.048828
-27.408524 -4.782765 67.851291
-27.473356 -4.718903 67.660483
-27.553131 -4.627467 67.444019
-27.652617 -4.618158 67.211778
-27.769873 -4.512033 67.055143
-27.902713 -4.660953 66.849005
-28.081515 -4.907231 66.645850
-28.309352 -5.274848 66.503063
-28.548338 -5.551543 66.336308
-28.726527 -5.743111 66.124380
-28.864348 -5.811682 65.973171
-29.027126 -5.886898 65.791992
-29.198421 -6.113385 65.648959
-29.362487 -6.104588 65.465273
-29.682272 -5.995920 65.228661
-25.795464 -5.411936 69.442692
-25.856092 -5.478574 69.257650
-25.906558 -5.451087 69.058960
-26.023799 -5.296587 68.850432
-26.069150 -5.123156 68.665068
-26.133588 -5.048200 68.413397
-26.204951 -4.983337 68.271751
-26.337924 -4.889405 68.048828
-26.408524 -4.782765 67.851291
-26.473356 -4.718903 67.660483
-26.553131 -4.627467 67.444019
-26.652617 -4.618158 67.211778
-26.769873 -4.512033 67.055143
-26.902713 -4.660953 66.849005
-27.081515 -4.907231 66.645850
-27.309352 -5.274848 66.503063
-27.548338 -5.551543 66.336308
-27.726527 -5.743111 66.124380
-27.864348 -5.811682 65.973171
-28.027126 -5.886898 65.791992
-28.198421 -6.113385 65.648959
-28.362487 -6.104588 65.465273
-28.682272 -5.995920 65.228661
-32.795464 -5.411936 69.442692
-32.856092 -5.478574 69.257650
-32.906558 -5.451087 69.058960
-33.023799 -5.296587 68.850432
-33.069150 -5.123156 68.665068
-33.133588 -5.048200 68.413397
-33.204951 -4.983337 68.271751
-33.337924 -4.889405 68.048828
-33.408524 -4.782765 67.851291
-33.473356 -4.718903 67.660483
-33.553131 -4.627467 67.444019
-33.652617 -4.618158 67.211778
-33.769873 -4.512033 67.055143
-33.902713 -4.660953 66.849005
-34.081515 -4.907231 66.645850
-34.309352 -5.274848 66.503063
-34.548338 -5.551543 66.336308
-34.726527 -5.743111 66.124380
-34.864348 -5.811682 65.973171
-35.027126 -5.886898 65.791992
-35.198421 -6.113385 65.648959
-35.362487 -6.104588 65.465273
-35.682272 -5.995920 65.228661
-31.795464 -5.411936 69.442692
-31.856092 -5.478574 69.257650
-31.906558 -5.451087 69.058960
-32.023799 -5.296587 68.850432
-32.069150 -5.123156 68.665068
-32.133588 -5.048200 68.413397
-32.204951 -4.983337 68.271751
-32.337924 -4.889405 68.048828
-32.408524 -4.782765 67.851291
-32.473356 -4.718903 67.660483
-32.553131 -4.627467 67.444019
-32.652617 -4.618158 67.211778
-32.769873 -4.512033 67.055143
-32.902713 -4.660953 66.849005
-33.081515 -4.907231 66.645850
-33.309352 -5.274848 66.503063
-33.548338 -5.551543 66.336308
-33.726527 -5.743111 66.124380
-33.864348 -5.811682 65.973171
-34.027126 -5.886898 65.791992
-34.198421 -6.113385 65.648959
-34.362487 -6.104588 65.465273
-34.682272 -5.995920 65.228661
-30.795464 -5.411936 69.442692
-30.856092 -5.478574 69.257650
-30.906558 -5.451087 69.058960
-31.023799 -5.296587 68.850432
-31.069150 -5.123156 68.665068
-31.133588 -5.048200 68.413397
-31.204951 -4.983337 68.271751
-31.337924 -4.889405 68.048828
-31.408524 -4.782765 67.851291
-31.473356 -4.718903 67.660483
-31.553131 -4.627467 67.444019
-31.652617 -4.618158 67.211778
-31.769873 -4.512033 67.055143
-31.902713 -4.660953 66.849005
-32.081515 -4.907231 66.645850
-32.309352 -5.274848 66.503063
-32.548338 -5.551543 66.336308
-32.726527 -5.743111 66.124380
-32.864348 -5.811682 65.973171
-33.027126 -5.886898 65.791992
-33.198421 -6.113385 65.648959
-33.362487 -6.104588 65.465273
-33.682272 -5.995920 65.228661
-29.722684 -5.615206 62.795266
-31.686363 -5.012455 63.383589
-32.262245 -5.674746 64.372522
-33.499681 -5.912301 65.194632
-34.408485 -5.901450 65.379228
-34.937656 -5.564549 66.174856
-35.160325 -4.555577 67.461347
-35.915739 -3.722344 68.680029
-35.255127 -2.859451 69.711114
-34.843296 -2.960580 70.606911
-33.850018 -3.296666 71.446426
-33.295062 -4.106713 71.412292
-32.252546 -5.137508 71.010649
-30.668385 -5.273554 62.809210
-29.293794 -5.125451 70.503509
-28.074771 -4.773560 70.162724
-26.880158 -5.151161 70.058604
-26.281353 -5.402733 69.445098
-25.975906 -5.918550 68.631400
-25.526174 -5.982054 67.890251
-24.992291 -5.305608 67.220976
-24.894985 -4.674872 66.268859
-25.103461 -4.487417 65.255039
-26.169957 -4.419718 64.361409
-26.989928 -5.137005 63.597882
-28.167605 -5.699074 63.718195
