ply
format ascii 1.0
element vertex 387
property float x
property float y
property float z
element face 0
property list uchar int vertex_index
end_header
-29.301815 18.322502 65.122850
-28.780669 17.272009 64.722582
-28.586068 16.271894 64.475965
-28.560477 15.255867 64.132413
-28.306883 14.369357 64.324073
-28.042641 13.474802 64.301067
-28.019851 12.594180 64.345994
-28.192610 11.585870 64.160433
-28.405140 10.624984 63.972842
-28.498427 9.658185 63.710391
-28.439531 8.729778 63.672481
-28.350177 7.828769 63.849057
-28.368475 6.908006 63.890266
-28.386796 6.028164 63.931527
-28.468261 5.059151 63.925343
-28.512889 4.127098 63.836722
-28.539015 3.237529 63.707320
-28.490590 2.362750 63.881002
-28.437890 1.400687 64.141750
-28.544992 0.473705 64.479111
-28.574512 -0.462496 64.738433
-28.656949 -1.368003 65.217169
-28.645551 -2.322571 65.485718
-28.338935 -3.265995 65.375411
-27.911683 -4.253212 65.994220
-29.593523 17.994579 64.964015
-29.575127 17.016927 64.667236
-29.438384 16.068093 64.453088
-29.322524 15.115885 64.199421
-29.205811 14.246342 64.112904
-29.128504 13.302295 64.027819
-29.208450 12.422673 63.865481
-29.128504 11.644752 64.027819
-29.228373 10.685659 63.825025
-29.249914 9.770563 63.621144
-29.192093 8.845384 63.578633
-29.211937 8.113000 63.538539
-29.326167 7.146259 63.787000
-29.385565 6.251129 63.666083
-29.618504 5.300274 63.754964
-29.638134 4.491384 63.714648
-29.697120 3.674160 63.512650
-29.599595 2.723325 63.631800
-29.559041 2.005698 63.958508
-29.574717 1.055987 64.751578
-29.491479 0.121653 65.431810
-29.470672 -0.746456 65.560791
-29.470118 -1.656464 65.647481
-29.610622 -2.603461 65.608513
-29.488838 -3.486062 65.865847
-29.701824 18.457623 65.428569
-30.078905 17.356392 64.935596
-30.078905 16.416233 64.935596
-30.032268 15.372032 64.645389
-30.056194 14.456966 64.561008
-30.276634 13.459296 64.308641
-30.378840 12.513977 64.475464
-30.425503 11.671742 64.308051
-30.534053 10.618410 64.070326
-30.557051 9.679208 63.987611
-30.518076 8.753978 63.975922
-30.307958 7.870212 64.272781
-30.424900 6.917367 64.082480
-30.563992 5.963010 63.811190
-30.679156 5.024059 63.623932
-30.803516 4.147399 63.705452
-30.829911 3.203865 64.069448
-30.811089 2.296421 64.605196
-30.862862 1.332345 65.124852
-30.932333 0.436376 65.751405
-31.060770 -0.512369 65.837055
-31.163480 -1.541670 65.773899
-31.226029 -2.403571 65.698926
-31.198062 -3.364337 65.972616
-30.976412 -4.379609 66.911986
-30.041043 17.842103 64.949086
-30.002724 17.042959 65.230117
-30.481429 16.048832 64.928677
-30.672967 15.129419 64.978520
-30.895443 14.349487 65.093983
-31.129005 13.380348 65.116351
-31.341241 12.390911 64.980602
-31.467864 11.552499 64.899613
-31.609673 10.744621 65.022150
-31.735520 9.825660 64.941206
-31.735520 8.971560 64.941206
-31.782478 8.192077 64.868382
-31.829309 7.201761 64.795755
-31.834393 6.473678 64.750006
-31.828324 5.474549 64.457802
-32.039980 4.650775 64.281220
-32.143934 3.934857 64.382994
-32.325304 2.878144 64.477447
-32.379079 2.037934 64.696528
-32.373105 1.239208 65.126961
-32.431177 0.302655 65.693912
-32.652049 -0.512003 65.808599
-32.903676 -1.404276 65.597010
-33.073842 -2.261952 65.831708
-33.165523 -3.188203 66.519717
-30.179077 17.271742 65.186950
-30.555331 16.461170 65.527322
-30.898475 15.674411 65.759461
-31.311394 14.791394 65.683491
-31.391716 14.009469 65.653084
-31.567328 13.132346 65.546810
-31.704580 12.258169 65.653990
-31.857086 11.485583 65.715376
-32.167063 10.653232 65.716071
-32.230666 9.817460 65.731402
-32.260638 9.083331 65.640444
-32.353864 8.239030 65.565098
-32.635867 7.422664 65.536067
-32.756690 6.672101 65.687205
-32.727531 5.890419 65.777785
-32.853492 5.040714 66.126755
-33.569104 4.205453 65.884154
-34.005267 3.511634 65.869397
-34.298929 2.655794 65.988919
-34.840959 1.933512 65.810706
-35.168113 1.157168 65.796386
-35.373176 0.352029 65.752612
-35.417239 -0.382980 66.165541
-35.633388 -1.186024 66.194528
-35.621077 -1.921660 66.238965
-32.651946 5.547752 65.337494
-32.684798 4.796789 65.159657
-33.030904 4.011182 65.012242
-33.243773 3.268106 64.964443
-33.508404 2.427451 65.060251
-33.729307 1.745086 65.057578
-33.898790 1.015448 65.139659
-34.084141 0.235204 65.248067
-34.296567 -0.491580 65.345601
-34.360864 -1.220334 65.533933
-34.266242 -1.903944 65.769526
-34.057668 -2.684544 66.303359
-30.927042 16.790177 64.485628
-31.045592 16.140217 64.868869
-31.438035 15.342121 65.105966
-31.475026 14.733903 65.436888
-31.555753 14.096535 65.625909
-31.969162 13.207523 65.687743
-32.110949 12.464762 65.966736
-32.211294 11.842844 66.322114
-32.436576 11.105990 66.449803
-32.600122 10.371060 66.486613
-32.538373 9.744530 66.600819
-32.783395 8.960027 66.553393
-32.823743 8.261148 66.818313
-32.945755 7.438640 66.999296
-33.208919 6.762238 66.844292
-33.389795 6.067525 66.774349
-33.609876 5.377082 66.764504
-33.669838 4.666047 66.786403
-33.967380 3.942224 66.760752
-34.243343 3.155858 66.772763
-34.596092 2.513617 66.835817
-34.925012 1.805640 66.802431
-35.174673 1.140030 66.784905
-35.218325 0.515957 67.042758
-35.372325 -0.248739 67.077475
-31.024068 18.108017 64.843070
-31.734475 17.097182 65.367499
-31.622900 16.472200 65.709047
-31.611027 15.660036 65.957834
-31.865277 14.930609 66.096670
-32.412668 13.965690 66.377056
-32.369360 13.202917 66.656548
-32.619660 12.420264 66.934552
-32.986971 11.581882 67.188675
-32.923254 10.854565 67.395070
-32.794641 10.099762 67.667122
-32.686758 9.333662 67.871264
-32.806398 8.530881 67.990749
-32.990797 7.725560 68.187900
-32.948138 6.982087 68.327442
-33.045429 6.182989 68.372397
-33.314880 5.376357 68.576299
-33.486671 4.617519 68.734798
-33.625245 3.823644 68.782715
-34.131303 3.015828 68.827012
-34.608508 2.256536 68.798385
-34.935126 1.510986 68.687348
-35.036085 0.739935 68.626698
-35.194355 -0.064662 68.363163
-35.600020 -0.823395 68.023333
-31.223551 18.530808 65.662249
-31.332208 17.490612 66.377718
-31.185290 16.566954 66.541774
-31.330854 15.601860 66.851445
-31.561415 14.617885 67.247663
-31.724217 13.651000 67.688278
-31.867551 12.598774 68.086369
-31.878540 11.681015 68.480564
-31.999829 10.769975 68.736741
-31.955928 9.962307 68.919705
-31.946627 9.042883 69.174436
-31.885712 8.072826 69.320253
-31.902951 7.345682 69.356195
-32.183485 6.414326 69.579860
-32.383600 5.526942 69.909386
-32.926531 4.666743 70.155980
-33.410633 3.664994 70.202083
-33.932971 2.879410 70.072979
-34.191611 1.943714 69.916408
-34.236160 1.148483 69.648512
-34.326441 0.316526 69.296884
-34.721619 -0.483026 69.174541
-34.676275 -1.352590 68.882236
-34.477561 -2.200674 68.517540
-34.630516 -3.052665 67.921033
-30.898380 17.833636 66.551150
-30.633426 16.838416 66.919877
-30.383458 15.831119 67.373995
-30.325829 14.896838 67.700435
-30.256232 14.194113 67.936627
-30.281218 12.976222 68.110748
-30.329308 11.992675 68.588191
-30.234561 11.155343 68.779179
-30.087108 10.315639 69.021560
-29.966712 9.355249 69.300889
-29.886585 8.442230 69.571313
-29.795106 7.695662 69.501549
-29.795106 6.738552 69.501549
-29.871075 5.803951 70.123387
-30.038557 4.879769 70.303670
-30.425523 3.966668 70.362325
-30.619436 3.298813 70.329250
-31.026584 2.501773 70.548781
-31.395048 1.531006 70.196958
-31.756695 0.512626 69.759871
-31.951034 -0.159937 69.389321
-32.117624 -0.953032 69.445595
-32.295504 -1.920134 68.903820
-32.586285 -2.785459 68.247237
-33.073148 -3.725304 67.232233
-29.647369 18.627648 66.658409
-29.622783 17.670939 66.620739
-29.559152 16.649584 66.847711
-29.383121 15.545985 67.475618
-29.186224 14.655218 67.558688
-29.087924 13.757892 67.662748
-29.039212 12.747312 67.963438
-28.807179 11.902015 68.053294
-28.469355 10.694063 68.534000
-28.370413 9.849519 68.391302
-28.149690 8.805194 68.314415
-28.065075 7.965922 68.373186
-28.070971 7.017721 68.739284
-28.147241 6.016270 68.965989
-28.214851 5.149681 69.471547
-28.411179 4.265098 69.863993
-28.590549 3.223631 69.943831
-28.767995 2.415648 69.789640
-28.875066 1.453597 69.767329
-29.172500 0.490902 69.783564
-29.493500 -0.322460 69.716688
-30.058698 -1.218348 69.166204
-30.425169 -2.123992 68.731325
-31.007652 -3.087504 68.044075
-31.582186 -4.078494 67.181980
-29.102300 18.817276 66.817477
-28.565845 17.628452 67.525913
-28.164227 16.446501 68.039895
-27.923163 15.490856 68.390918
-27.803798 14.440640 68.564729
-27.755544 13.597118 68.731980
-27.737128 12.558015 68.965622
-27.560259 11.580722 69.002061
-27.307656 10.586727 69.136117
-27.056931 9.638014 69.269175
-27.093095 8.734187 69.243658
-26.948712 7.804785 69.345536
-26.748405 6.807016 69.789822
-26.727755 5.842313 70.104610
-26.701476 5.102856 70.505194
-26.666905 4.031767 71.032182
-27.031880 3.080312 71.076217
-27.205327 2.310094 71.000858
-27.554745 1.353845 70.849043
-27.976301 0.388507 70.691593
-28.467851 -0.552607 70.192489
-28.802305 -1.354281 69.967322
-29.220898 -2.399109 69.642450
-29.662282 -3.327654 68.820505
-30.303198 -4.388550 67.619217
-28.209262 18.401417 66.247310
-27.483961 17.095216 66.628758
-27.138209 16.228815 66.742388
-27.097860 15.241676 66.669179
-26.796474 14.288717 67.037222
-26.627323 13.307195 67.183159
-26.175475 12.258900 67.615375
-26.166079 11.326880 67.686987
-26.185820 10.402836 67.722905
-26.204648 9.532203 67.579632
-26.332020 8.624234 67.544173
-26.224416 7.681271 67.615591
-25.961901 6.765825 67.757257
-25.991985 5.841343 67.900056
-26.071693 4.915374 68.220946
-25.757233 4.003771 68.780172
-25.694392 3.078384 69.267759
-25.771920 2.129089 69.409169
-26.369292 1.314056 69.462153
-26.749961 0.358668 69.367952
-26.858141 -0.228221 69.300358
-27.275684 -1.458757 68.812114
-27.935754 -2.421411 68.281620
-28.165665 -3.344306 67.771434
-28.703744 -4.344190 67.142244
-28.530567 18.584370 65.591920
-27.987368 17.505308 65.642274
-27.567681 16.402674 65.913038
-27.176921 15.420255 66.031626
-26.968242 14.447595 66.109053
-27.006261 13.486205 66.182097
-26.682248 12.505894 66.223838
-26.712124 11.597810 66.186722
-26.712124 10.681406 66.186722
-26.592861 9.739086 66.334891
-26.345574 8.731612 66.701489
-26.199067 7.797323 66.883310
-26.018371 6.877429 66.812397
-26.188560 5.941211 66.955467
-26.088585 5.016845 67.314878
-25.669463 4.123522 67.598999
-25.525943 3.093235 67.951355
-25.032216 2.298849 68.504025
-24.676033 1.368312 68.773462
-24.757385 0.414544 68.844006
-24.948648 -0.422189 68.779260
-25.178509 -1.185779 68.610776
-25.523010 -2.203589 68.302570
-26.208369 -3.095483 67.636981
-26.940506 -4.094201 67.097260
-28.841919 18.738309 65.151665
-28.565729 17.726903 65.161823
-28.110501 16.556478 65.178567
-27.930165 15.586864 65.185200
-27.790809 14.631544 65.252794
-27.648892 13.679568 65.361762
-27.461680 12.642869 65.492468
-27.314956 11.698792 65.683227
-26.963965 10.645491 65.693556
-26.951623 9.733543 65.858333
-26.762290 8.757795 66.068324
-26.720490 7.885047 66.048837
-26.855278 6.914754 65.984043
-26.720490 5.914682 66.048837
-26.708246 5.125422 66.212908
-26.692949 4.060538 66.417900
-26.419249 3.258047 66.626671
-26.100893 2.187318 66.895034
-25.869920 1.129004 67.160147
-25.823334 0.117957 67.221013
-25.823334 -0.736739 67.221013
-26.117869 -1.520088 67.239590
-26.593265 -2.631420 67.175707
-27.361476 -3.497094 66.819278
-28.198544 -4.508119 66.390440
-29.879777 18.924424 64.637044
-29.305519 17.763966 64.282006
-28.762225 16.580752 64.133743
-28.660331 15.701462 64.064719
-28.240250 14.553897 64.120144
-28.219774 13.746193 64.152616
-28.111341 12.635609 64.248702
-28.090888 11.865339 64.281140
-27.844979 10.974375 64.142680
-27.719915 9.928299 64.041082
-27.877177 9.050853 64.242171
-27.743254 8.089681 64.304149
-27.650320 7.204774 64.301472
-27.580601 6.372561 64.562332
-27.609459 5.293153 64.893385
-27.418076 4.219386 64.820310
-27.146975 3.406056 64.876216
-26.919239 2.458799 65.163313
-26.935361 1.554092 65.361757
-26.580882 0.751347 65.477624
-26.389699 -0.298038 65.633114
-26.219383 -1.197330 65.461003
-26.409787 -2.286197 65.601188
-26.637396 -3.061766 65.909675
-27.366106 -4.053085 66.115227
